# .PCD v0.7 - Point Cloud Data file format
VERSION 0.7
FIELDS x y z
SIZE 4 4 4
TYPE F F F
COUNT 1 1 1
WIDTH 1462
HEIGHT 1
VIEWPOINT 0 0 0 1 0 0 0
POINTS 1462
DATA ascii
-0.55556118 0.37496552 1.696542
-0.55571663 0.37813225 1.6970168
-0.55587226 0.38130081 1.697492
-0.5529781 0.33852676 1.6980095
-0.55313402 0.34168667 1.6984882
-0.55329013 0.34484842 1.6989676
-0.55344629 0.34801194 1.6994472
-0.55360252 0.35117722 1.6999269
-0.57566398 0.3085559 1.7016772
-0.55677843 0.31136647 1.7002593
-0.55693382 0.31452185 1.7007338
-0.55375791 0.35434371 1.700404
-0.55391377 0.35751224 1.7008827
-0.55407 0.36068267 1.7013623
-0.55422628 0.36385491 1.7018422
-0.57285798 0.30869827 1.7024623
-0.56994766 0.30878565 1.7029443
-0.56686085 0.30877787 1.7029012
-0.56377417 0.30877006 1.7028582
-0.56068766 0.30876225 1.7028152
-0.55760121 0.30875438 1.7027718
-0.55179018 0.3304593 1.703801
-0.55438268 0.36702898 1.7023225
-0.55453914 0.37020481 1.7028029
-0.55469573 0.37338242 1.7032837
-0.55194533 0.3336271 1.7042801
-0.55210084 0.33679688 1.7047603
-0.55225724 0.33996895 1.7052432
-0.5524137 0.34314278 1.7057264
-0.5742197 0.30635312 1.7065091
-0.57112628 0.30634534 1.7064658
-0.56803304 0.30633759 1.7064227
-0.56493998 0.30632985 1.7063794
-0.56184691 0.30632201 1.7063358
-0.55875367 0.30631399 1.7062911
-0.55574274 0.30635127 1.7064987
-0.55589944 0.30951741 1.7069799
-0.55605525 0.3126848 1.7074583
-0.55621111 0.31585395 1.7079369
-0.55257028 0.34631839 1.7062098
-0.55272686 0.34949583 1.7066934
-0.55288363 0.35267508 1.7071774
-0.55304021 0.35585597 1.7076609
-0.56921011 0.30388725 1.7099587
-0.56611043 0.30387944 1.7099148
-0.56301057 0.30387145 1.7098699
-0.55991089 0.30386347 1.7098249
-0.55681133 0.30385548 1.70978
-0.55636704 0.31902486 1.7084157
-0.55319667 0.3590385 1.7081439
-0.55335331 0.36222291 1.7086277
-0.57540959 0.30390266 1.7100455
-0.57230979 0.30389497 1.7100021
-0.57349819 0.30143437 1.713553
-0.57039195 0.30142662 1.713509
-0.56728542 0.30141869 1.7134638
-0.56417906 0.30141073 1.7134186
-0.56107295 0.30140281 1.7133735
-0.55796689 0.30139485 1.7133284
-0.55486101 0.30138692 1.7132832
-0.55485618 0.3044754 1.7132682
-0.55501348 0.30765373 1.7137539
-0.55516964 0.31083316 1.7142361
-0.55532593 0.31401438 1.7147186
-0.55548221 0.31719738 1.7152013
-0.55563867 0.32038218 1.7156843
-0.57462496 0.29892889 1.7169195
-0.57147992 0.29890415 1.7167774
-0.56833547 0.29887941 1.7166355
-0.56519151 0.29885468 1.7164934
-0.56204808 0.29882997 1.7163514
-0.55890512 0.29880524 1.7162094
-0.55576277 0.29878053 1.7160676
-0.5530625 0.3206833 1.7172968
-0.55579519 0.32356876 1.7161676
-0.55595177 0.32675716 1.7166511
-0.55610842 0.32994735 1.7171348
-0.57230705 0.29623482 1.7192621
-0.56915796 0.29621026 1.7191197
-0.56600934 0.29618573 1.7189772
-0.56286132 0.2961612 1.7188349
-0.55971378 0.29613665 1.7186924
-0.55656689 0.29611218 1.7185504
-0.55364841 0.29620966 1.7191162
-0.55380511 0.29939604 1.7196027
-0.55033517 0.32089967 1.7184556
-0.55329847 0.32391983 1.7180295
-0.55072194 0.32422784 1.7196631
-0.55368716 0.32724926 1.7192364
-0.57313651 0.29355773 1.721754
-0.56998277 0.29353335 1.721611
-0.56682956 0.29350901 1.7214682
-0.56367689 0.29348466 1.7213254
-0.5605247 0.29346031 1.7211826
-0.55737334 0.29343611 1.7210406
-0.55422276 0.29341203 1.7208995
-0.55396247 0.30258456 1.7200913
-0.55412018 0.30577502 1.7205811
-0.554277 0.30896676 1.721068
-0.55443364 0.3121601 1.7215543
-0.54775524 0.3212049 1.7200902
-0.54517031 0.3215107 1.7217277
-0.54814053 0.32453647 1.7213001
-0.55110943 0.32756081 1.7208731
-0.55407703 0.33058378 1.7204471
-0.55446881 0.33392382 1.7216636
-0.56765217 0.29082453 1.7239665
-0.56449485 0.29080039 1.7238233
-0.56133807 0.29077622 1.72368
-0.55818218 0.29075226 1.723538
-0.55502689 0.29072836 1.7233964
-0.55459034 0.3153553 1.7220409
-0.55469459 0.3185221 1.7223645
-0.55161756 0.31853971 1.7224598
-0.54854017 0.31855732 1.722555
-0.54546243 0.31857494 1.7226503
-0.54238439 0.31859255 1.7227455
-0.53960544 0.31878707 1.7237973
-0.54258066 0.32181719 1.7233689
-0.54555446 0.32484582 1.7229408
-0.54852676 0.32787293 1.722513
-0.55149812 0.33089885 1.7220868
-0.54891419 0.33121452 1.7237296
-0.55188835 0.33424222 1.7233053
-0.55486137 0.33726865 1.7228824
-0.55583346 0.28803694 1.7259008
-0.55267406 0.28801325 1.7257588
-0.57081002 0.2908487 1.7241098
-0.55259031 0.29108277 1.7254972
-0.55274725 0.29427952 1.7259873
-0.53697801 0.31907389 1.7253482
-0.53998613 0.32212427 1.7250135
-0.54296345 0.32515576 1.7245847
-0.54593933 0.32818574 1.7241563
-0.54334694 0.32849917 1.7258029
-0.54632539 0.33153078 1.7253755
-0.54930294 0.33456129 1.7249503
-0.55584931 0.34098318 1.72595
-0.57163966 0.28815624 1.7266157
-0.56847715 0.28813228 1.726472
-0.56531519 0.28810829 1.7263284
-0.56215376 0.28808433 1.7261847
-0.55899334 0.28806064 1.7260427
-0.55290425 0.29747808 1.7264776
-0.55306172 0.30067861 1.7269692
-0.5532198 0.30388129 1.7274629
-0.55337727 0.30708542 1.7279546
-0.55325025 0.31636563 1.727558
-0.55016381 0.31638315 1.7276537
-0.54707712 0.31640071 1.7277496
-0.54399002 0.31641826 1.7278454
-0.54090261 0.31643581 1.7279413
-0.53424525 0.3193011 1.7265769
-0.53150862 0.31952864 1.7278073
-0.53737319 0.32242391 1.7266181
-0.5346387 0.32265368 1.7278485
-0.54036742 0.32546625 1.7262316
-0.53776652 0.32577738 1.7278818
-0.54074973 0.32881323 1.7274529
-0.54373157 0.33184764 1.7270246
-0.54671258 0.33488092 1.7265984
-0.55600733 0.34419504 1.7264408
-0.55616546 0.34740868 1.7269317
-0.55632365 0.35062414 1.727423
-0.55648136 0.35384107 1.7279125
-0.56930459 0.28543216 1.7289848
-0.56613791 0.28540838 1.7288407
-0.56297189 0.28538465 1.7286971
-0.55980682 0.28536114 1.7285546
-0.55664229 0.28533763 1.7284123
-0.55347818 0.28531411 1.7282698
-0.55353427 0.31029102 1.7284448
-0.55369133 0.31349847 1.7289352
-0.53781492 0.3164534 1.7280372
-0.53472716 0.31647119 1.7281344
-0.5316391 0.31648898 1.7282315
-0.52855074 0.3165068 1.7283288
-0.5256359 0.31662935 1.7289981
-0.52876806 0.31975651 1.7290394
-0.53190035 0.32288378 1.7290807
-0.53503287 0.3260113 1.7291224
-0.53814751 0.32912788 1.7291059
-0.54113287 0.33216512 1.7286768
-0.54411727 0.33520117 1.7282495
-0.57013434 0.28272417 1.7315049
-0.56696302 0.28270057 1.7313604
-0.56379247 0.28267711 1.7312168
-0.56062275 0.28265381 1.731074
-0.55745351 0.28263047 1.7309312
-0.55428475 0.28260717 1.7307884
-0.55136704 0.28271228 1.7314322
-0.55152422 0.28591767 1.7319257
-0.52288932 0.31685531 1.7302319
-0.52013874 0.31708157 1.7314675
-0.52602357 0.31998467 1.7302732
-0.52327526 0.3202132 1.731509
-0.52915806 0.32311422 1.7303146
-0.52641183 0.32334495 1.7315503
-0.53229296 0.32624406 1.7303569
-0.52954912 0.32647717 1.7315934
-0.53542811 0.32937413 1.7303996
-0.53268647 0.32960951 1.7316362
-0.53852916 0.33248323 1.7303323
-0.53582394 0.33274201 1.731679
-0.56779057 0.27998489 1.7338876
-0.56461543 0.27996168 1.7337438
-0.561441 0.27993855 1.7336006
-0.55826706 0.27991542 1.7334573
-0.55509365 0.2798923 1.7333142
-0.55192077 0.27986917 1.733171
-0.55168146 0.28912485 1.7324195
-0.55183876 0.29233387 1.7329135
-0.55199623 0.29554471 1.7334079
-0.55215371 0.29875737 1.7339025
-0.55179715 0.31419611 1.7327828
-0.54870141 0.3142136 1.7328793
-0.54560524 0.3142311 1.7329757
-0.54250872 0.31424859 1.7330722
-0.5394119 0.31426609 1.7331686
-0.53631496 0.3142837 1.7332659
-0.53321785 0.31430143 1.7333636
-0.53012037 0.31431916 1.7334614
-0.52702254 0.3143369 1.7335591
-0.52392441 0.31435463 1.733657
-0.52082586 0.31437236 1.7337548
-0.51772696 0.31439009 1.7338526
-0.51462775 0.31440783 1.7339504
-0.51738429 0.31730819 1.7327049
-0.51462585 0.3175351 1.7339441
-0.52052289 0.32044205 1.7327464
-0.51776665 0.3206712 1.7339855
-0.52366203 0.32357621 1.7327888
-0.52680135 0.32671061 1.7328315
-0.52994084 0.32984519 1.7328744
-0.53308052 0.33297992 1.7329172
-0.55495346 0.33922505 1.7328763
-0.55511189 0.34244928 1.733371
-0.55527031 0.34567535 1.7338659
-0.55908298 0.27719241 1.7359909
-0.55590492 0.2771695 1.7358474
-0.55272728 0.27714655 1.7357037
-0.5709666 0.28000829 1.7340324
-0.55231214 0.30197236 1.7343999
-0.55247027 0.30518895 1.7348965
-0.55262762 0.30840692 1.7353907
-0.5527851 0.31162673 1.7358851
-0.51152819 0.31442559 1.7340482
-0.50872064 0.31462413 1.7351433
-0.51186347 0.31776235 1.7351849
-0.51500666 0.3209008 1.7352271
-0.52090824 0.32380781 1.7340289
-0.51815045 0.3240397 1.7352707
-0.52404964 0.32694441 1.7340715
-0.521294 0.32717851 1.7353132
-0.52719134 0.33008122 1.7341144
-0.5244379 0.33031762 1.7353562
-0.53033322 0.33321822 1.7341573
-0.55542839 0.34890291 1.7343594
-0.55558616 0.35213205 1.734852
-0.5686205 0.27726123 1.7364219
-0.56544083 0.27723831 1.7362783
-0.56226164 0.27721533 1.7361345
-0.55029279 0.27749807 1.7379051
-0.50595212 0.31484947 1.7363859
-0.50317961 0.3150751 1.7376304
-0.50909716 0.31798992 1.7364277
-0.50632691 0.31821787 1.7376723
-0.51224279 0.32113078 1.7364707
-0.50947493 0.32136112 1.7377162
-0.51538861 0.32427189 1.7365141
-0.51262289 0.32450438 1.7377592
-0.51853442 0.32741296 1.7365566
-0.51577091 0.32764778 1.737802
-0.52168047 0.33055428 1.7365997
-0.51891911 0.33079135 1.7378451
-0.569453 0.2745297 1.7389642
-0.56627077 0.274508 1.7388268
-0.5631386 0.27451044 1.7388424
-0.56000632 0.27451289 1.7388579
-0.55687398 0.27451536 1.7388734
-0.55374163 0.2745178 1.738889
-0.55060923 0.27452025 1.7389045
-0.55045021 0.28071392 1.7384022
-0.55060768 0.28393161 1.7388997
-0.55076534 0.28715116 1.7393975
-0.55092299 0.29037252 1.7398955
-0.55033529 0.31201348 1.7380395
-0.54723001 0.31203088 1.7381364
-0.54412442 0.31204829 1.7382334
-0.54101843 0.31206572 1.7383305
-0.53791225 0.31208318 1.7384279
-0.53480595 0.31210086 1.7385262
-0.53169936 0.3121185 1.7386246
-0.52859241 0.31213617 1.7387229
-0.52548504 0.31215382 1.7388213
-0.52237743 0.31217149 1.7389197
-0.51926941 0.31218916 1.7390181
-0.51616102 0.31220683 1.7391165
-0.51305228 0.31222448 1.7392149
-0.50994325 0.31224215 1.7393134
-0.50683379 0.31225982 1.7394118
-0.50372404 0.3122775 1.7395103
-0.50061387 0.3122952 1.7396088
-0.4975034 0.31231287 1.7397072
-0.50040317 0.31530106 1.7388766
-0.50355291 0.31844625 1.7389195
-0.50670314 0.32159176 1.7389634
-0.50985318 0.32473725 1.7390063
-0.51300335 0.32788289 1.7390491
-0.51615381 0.33102873 1.7390922
-0.55108082 0.29359576 1.7403939
-0.55123866 0.29682082 1.7408924
-0.55139714 0.30004802 1.7413929
-0.55155599 0.30327722 1.7418945
-0.49447128 0.31238028 1.7400827
-0.49168465 0.31260461 1.7413324
-0.49762276 0.31552735 1.7401246
-0.49483854 0.31575412 1.7413751
-0.50077498 0.31867498 1.7401685
-0.49799296 0.31890401 1.7414192
-0.50392729 0.32182273 1.7402123
-0.50114745 0.32205403 1.7414629
-0.50707948 0.32497045 1.740255
-0.50430179 0.32520396 1.7415055
-0.51023185 0.32811835 1.7402979
-0.50745642 0.32835415 1.7415485
-0.51338452 0.33126646 1.7403412
-0.55420917 0.34068948 1.740357
-0.55436754 0.34392774 1.7408545
-0.55452561 0.34716758 1.7413508
-0.55468386 0.35040936 1.7418479
-0.56769812 0.27205476 1.7432096
-0.56455803 0.27205721 1.7432252
-0.56141788 0.27205965 1.7432408
-0.55827767 0.27206206 1.7432564
-0.5551374 0.27206451 1.7432721
-0.55199713 0.27206695 1.7432877
-0.19979922 0.28160679 1.7439317
-0.19034843 0.2847361 1.7438266
-0.55171365 0.30650759 1.7423925
-0.55187148 0.30973983 1.742891
-0.54886454 0.30981752 1.7433281
-0.54574972 0.30983487 1.7434256
-0.54263455 0.30985221 1.7435232
-0.53951907 0.30986956 1.7436209
-0.5364036 0.30988711 1.7437197
-0.53328776 0.30990469 1.7438186
-0.53017163 0.30992228 1.7439176
-0.48889405 0.31282929 1.742584
-0.48609951 0.31305438 1.7438377
-0.49205035 0.31598124 1.7426276
-0.48925814 0.31620863 1.7438818
-0.49520698 0.3191334 1.7426717
-0.49241698 0.31936309 1.743926
-0.49836361 0.32228562 1.7427152
-0.49557573 0.32251754 1.7439693
-0.50152016 0.32543784 1.7427579
-0.50467694 0.3285903 1.7428011
-0.55484259 0.35365319 1.7423462
-0.54921043 0.27224472 1.7444267
-0.54936808 0.27547112 1.7449275
-0.54952592 0.27869937 1.7454287
-0.21572533 0.27871084 1.7455004
-0.21243376 0.27852425 1.744332
-0.20927283 0.27850595 1.7442173
-0.20630281 0.278745 1.7457144
-0.54968381 0.28192952 1.7459302
-0.21260874 0.28190345 1.7457688
-0.20940103 0.28182545 1.7452857
-0.20619509 0.28174749 1.744803
-0.20299092 0.28166959 1.7443205
-0.19682156 0.28184846 1.7454283
-0.20315813 0.28505132 1.7457572
-0.19995303 0.28497243 1.7452742
-0.19674973 0.2848936 1.7447914
-0.19354819 0.2848148 1.7443088
-0.19370762 0.28819916 1.7457457
-0.19050518 0.28811941 1.7452626
-0.18730453 0.28803974 1.7447801
-0.1842573 0.291347 1.7457346
-0.52705508 0.30993986 1.7440165
-0.52393824 0.30995744 1.7441155
-0.52082103 0.30997506 1.7442145
-0.51770347 0.30999264 1.7443135
-0.51458555 0.31001025 1.7444125
-0.51146722 0.31002784 1.7445115
-0.50834858 0.31004545 1.7446105
-0.50522965 0.31006303 1.7447096
-0.5021103 0.31008065 1.7448087
-0.4989906 0.31009826 1.7449077
-0.49587053 0.31011587 1.7450068
-0.49275014 0.31013346 1.7451059
-0.48962936 0.31015107 1.7452049
-0.48650825 0.31016868 1.7453041
-0.48338678 0.3101863 1.7454032
-0.48026496 0.31020394 1.7455024
-0.48330107 0.31327984 1.7450937
-0.48646194 0.31643641 1.7451379
-0.48962295 0.31959313 1.7451822
-0.49278381 0.32274979 1.7452252
-0.49873447 0.32567203 1.7440121
-0.49594477 0.32590654 1.745268
-0.50189346 0.32882676 1.7440553
-0.49910602 0.32906359 1.7453114
-0.56913263 0.26958916 1.7476146
-0.56598461 0.26959157 1.7476302
-0.56283659 0.26959398 1.747646
-0.55968845 0.2695964 1.7476617
-0.55654025 0.26959881 1.7476773
-0.55339205 0.26960126 1.7476931
-0.55024314 0.26960337 1.7477069
-0.21908011 0.27897251 1.7471392
-0.20332766 0.27898446 1.7472141
-0.21581821 0.28198147 1.7462519
-0.22545734 0.28221583 1.7477033
-0.22224252 0.28213766 1.7472193
-0.21902947 0.28205955 1.7467355
-0.19383875 0.28209054 1.7469274
-0.54984176 0.2851615 1.7464319
-0.21599618 0.28536722 1.7476919
-0.21278401 0.28528818 1.7472079
-0.20957361 0.28520921 1.7467241
-0.20636499 0.28513023 1.7462406
-0.18753354 0.28524011 1.7469134
-0.54999983 0.28839535 1.7469341
-0.20653515 0.28851858 1.7476805
-0.2033256 0.28843865 1.7471964
-0.20011783 0.28835878 1.7467126
-0.19691184 0.28827894 1.7462289
-0.18444985 0.28849846 1.7475588
-0.55015802 0.29163104 1.7474364
-0.1970742 0.29166982 1.7476689
-0.1938673 0.29158902 1.7471848
-0.19066218 0.29150829 1.7467009
-0.18745886 0.29142761 1.7462176
-0.55031621 0.29486859 1.747939
-0.18761343 0.29482111 1.7476575
-0.18440919 0.29473948 1.7471737
-0.18120672 0.29465789 1.74669
-0.17815283 0.29797241 1.7476467
-0.47733569 0.31034696 1.7463073
-0.47448629 0.31054419 1.747417
-0.48049858 0.31350565 1.7463515
-0.4776921 0.31373179 1.7476112
-0.48366168 0.31666449 1.7463958
-0.4808574 0.31689289 1.7476555
-0.4868249 0.31982347 1.7464401
-0.48402274 0.32005411 1.7476995
-0.48998788 0.32298237 1.7464828
-0.48718795 0.32321531 1.7477424
-0.49315104 0.32614142 1.7465258
-0.49035335 0.32637665 1.7477854
-0.55345708 0.34216577 1.7478985
-0.20984709 0.27611458 1.7490035
-0.22244118 0.27923468 1.7487811
-0.20034741 0.27922434 1.7487164
-0.23189233 0.2823723 1.7486722
-0.22867395 0.28229403 1.7481877
-0.19085078 0.28233296 1.7484287
-0.2288627 0.28568378 1.7496307
-0.2256434 0.2856046 1.7491456
-0.22242588 0.28552541 1.7486608
-0.21921013 0.28544629 1.7481762
-0.21939108 0.28883862 1.7496192
-0.21617442 0.28875855 1.7491342
-0.21295956 0.2886785 1.7486494
-0.20974645 0.28859851 1.7481648
-0.2099196 0.29199344 1.7496079
-0.20670559 0.29191247 1.7491227
-0.20349336 0.29183155 1.7486379
-0.20028289 0.29175067 1.7481532
-0.18136387 0.29175925 1.7482047
-0.20044823 0.29514816 1.7495964
-0.19723685 0.29506633 1.7491112
-0.19402725 0.29498452 1.7486262
-0.19081944 0.29490277 1.7481416
-0.17827559 0.29502243 1.7488509
-0.5504747 0.2981081 1.7484424
-0.19097695 0.29830286 1.7495847
-0.18776827 0.29822019 1.7490999
-0.18456134 0.29813755 1.7486151
-0.18135619 0.29805496 1.7481308
-0.17518505 0.29828808 1.749498
-0.55063403 0.30134988 1.7489485
-0.1815059 0.30145764 1.7495739
-0.17829984 0.30137408 1.749089
-0.17509556 0.30129057 1.7486043
-0.55079234 0.30459288 1.7494512
-0.55050886 0.3075909 1.7485508
-0.5473848 0.30760816 1.7486489
-0.54426038 0.30762544 1.7487471
-0.54113561 0.3076427 1.7488452
-0.53801078 0.30766013 1.7489443
-0.53488576 0.30767763 1.7490438
-0.53176033 0.30769515 1.7491434
-0.52863455 0.30771264 1.7492429
-0.52550846 0.30773017 1.7493424
-0.52238196 0.30774766 1.749442
-0.51925516 0.30776522 1.7495416
-0.51612794 0.30778271 1.7496412
-0.51300043 0.30780026 1.7497408
-0.50987256 0.30781779 1.7498405
-0.50674427 0.30783531 1.7499402
-0.47155201 0.31068811 1.7482269
-0.46861506 0.3108322 1.7490376
-0.46567535 0.31097645 1.7498492
-0.4748534 0.31393963 1.7487689
-0.47191703 0.31408525 1.7495801
-0.47804904 0.31712165 1.748917
-0.48121652 0.32028508 1.7489607
-0.48438394 0.32344857 1.7490038
-0.48755154 0.3266122 1.7490468
-0.55361575 0.34541836 1.7483995
-0.55377471 0.34867296 1.7489016
-0.5539338 0.35192943 1.749404
-0.54827791 0.27018884 1.751502
-0.21649438 0.27654392 1.7517231
-0.21313319 0.27628377 1.7500751
-0.20686939 0.27635226 1.7505089
-0.22580858 0.27949733 1.7504261
-0.19736199 0.27946457 1.7502209
-0.1943714 0.2797052 1.7517278
-0.18792173 0.28267217 1.7505294
-0.23530659 0.28584224 1.7506011
-0.23208372 0.28576294 1.7501155
-0.18483178 0.28593633 1.7511774
-0.23227544 0.28915924 1.7515613
-0.22905165 0.28907898 1.7510751
-0.22582974 0.2889989 1.7505901
-0.22260953 0.28891876 1.7501047
-0.18173954 0.28920293 1.7518259
-0.22279343 0.29231763 1.7515504
-0.21957235 0.29223657 1.7510648
-0.21635298 0.29215547 1.7505789
-0.21313539 0.29207444 1.7500932
-0.21331152 0.29547596 1.7515395
-0.21009302 0.29539394 1.7510533
-0.20687631 0.29531199 1.7505674
-0.20366138 0.29523006 1.7500818
-0.20382968 0.29863417 1.751528
-0.20061383 0.29855129 1.7510418
-0.19739977 0.29846844 1.7505559
-0.19418746 0.29838562 1.7500701
-0.19434793 0.30179232 1.7515163
-0.19113474 0.30170855 1.7510302
-0.18792336 0.30162489 1.7505445
-0.18471374 0.30154121 1.750059
-0.1880787 0.3050352 1.7519916
-0.18486638 0.30495054 1.7515054
-0.18165585 0.30486593 1.7510194
-0.17844713 0.30478138 1.7505338
-0.17524016 0.30469686 1.7500483
-0.17220904 0.30492058 1.7513334
-0.50361562 0.30785283 1.7500397
-0.50048667 0.30787036 1.7501394
-0.4973574 0.30788791 1.7502391
-0.49422771 0.30790544 1.7503388
-0.49109766 0.30792296 1.7504385
-0.48796725 0.30794051 1.7505381
-0.48483652 0.30795804 1.7506379
-0.4817054 0.30797559 1.7507375
-0.47857383 0.30799305 1.7508368
-0.47544175 0.30801043 1.7509357
-0.47230932 0.3080278 1.7510345
-0.4691765 0.30804518 1.7511332
-0.46604338 0.30806255 1.751232
-0.46290988 0.30807996 1.7513309
-0.45977601 0.30809733 1.7514297
-0.45664185 0.30811474 1.7515286
-0.45353746 0.30815265 1.751744
-0.17859465 0.30819431 1.7519809
-0.17538495 0.30810869 1.7514943
-0.17217705 0.30802315 1.751008
-0.46273291 0.31112078 1.7506614
-0.45978776 0.31126526 1.7514744
-0.46897796 0.31423104 1.7503922
-0.46603617 0.31437695 1.751205
-0.4752211 0.31734031 1.750123
-0.47228265 0.31748766 1.7509356
-0.46934134 0.31763506 1.7517484
-0.47840628 0.32051641 1.7502239
-0.47558904 0.32074609 1.7514781
-0.48157591 0.32368216 1.7502669
-0.47876382 0.32391611 1.751532
-0.48474574 0.32684809 1.7503101
-0.48193589 0.32708436 1.7515752
-0.56741846 0.26711345 1.7520577
-0.56426245 0.26711583 1.7520734
-0.56110638 0.26711825 1.7520893
-0.55795026 0.26712066 1.752105
-0.55479401 0.26712304 1.7521207
-0.55163729 0.26712522 1.752135
-0.54848015 0.26712722 1.7521482
-0.54843599 0.27342772 1.752007
-0.54859412 0.27666852 1.7525122
-0.21986191 0.27680457 1.753374
-0.20388655 0.27659029 1.7520168
-0.20089854 0.27682871 1.7535269
-0.54875237 0.27991113 1.7530177
-0.22918232 0.27976048 1.7520741
-0.19137567 0.27994621 1.7532374
-0.54891074 0.28315568 1.7535236
-0.24208449 0.28955203 1.7539407
-0.23872839 0.28931984 1.7525342
-0.23550102 0.2892395 1.7520475
-0.23892586 0.29272375 1.7539839
-0.23569578 0.29264241 1.7534965
-0.23246747 0.29256111 1.7530093
-0.22924097 0.29247984 1.7525225
-0.22601627 0.29239869 1.7520361
-0.17864509 0.29247206 1.7524757
-0.22943059 0.29588634 1.7539722
-0.22620316 0.29580411 1.7534847
-0.22297758 0.29572204 1.7529981
-0.21975382 0.29564002 1.752512
-0.21653183 0.29555804 1.752026
-0.17554839 0.2957437 1.7531265
-0.21993552 0.29904902 1.7539611
-0.21671085 0.29896605 1.7534745
-0.21348795 0.29888314 1.7529881
-0.21026674 0.29880011 1.7525011
-0.20704733 0.29871714 1.7520145
-0.20077971 0.30196002 1.7524897
-0.19756292 0.30187616 1.7520028
-0.20399827 0.30204394 1.7529767
-0.17237262 0.30204746 1.752997
-0.54902971 0.3053681 1.7539036
-0.19772637 0.30528951 1.7534523
-0.19450867 0.30520466 1.752965
-0.19129279 0.3051199 1.7524781
-0.4505862 0.30829582 1.752558
-0.44763219 0.30843917 1.7533728
-0.1914511 0.30853689 1.7539284
-0.1882343 0.30845118 1.7534411
-0.18501931 0.30836552 1.7529542
-0.1818061 0.30827993 1.7524676
-0.45683989 0.31140989 1.7522882
-0.45388922 0.31155461 1.7531027
-0.45093584 0.31169951 1.7539179
-0.18195657 0.31169951 1.7539179
-0.17874239 0.31161284 1.7534302
-0.17553 0.31152621 1.7529428
-0.1723194 0.31143966 1.7524557
-0.46309161 0.31452298 1.7520185
-0.46014431 0.31466913 1.7528327
-0.4571943 0.31481546 1.7536477
-0.17246199 0.3148618 1.7539058
-0.46639732 0.31778258 1.752562
-0.46345055 0.31793022 1.7533764
-0.47264832 0.32089502 1.7522913
-0.46970496 0.32104412 1.7531055
-0.46675879 0.32119334 1.7539203
-0.47594765 0.32415038 1.7527988
-0.47301462 0.32430768 1.7536494
-0.21052729 0.27384377 1.7546728
-0.20743909 0.27394629 1.7553296
-0.22323579 0.27706569 1.7550281
-0.19790535 0.27706748 1.7550395
-0.23264425 0.28012267 1.7543423
-0.18837476 0.28018767 1.7547494
-0.23579165 0.28326648 1.7542098
-0.18521531 0.28336358 1.7548112
-0.54906917 0.28640208 1.7540298
-0.23893836 0.28640956 1.7540756
-0.18211693 0.2866362 1.7554637
-0.54922771 0.28965035 1.7545362
-0.54938632 0.29290047 1.7550429
-0.24539146 0.29288658 1.7549596
-0.24215776 0.29280514 1.7544715
-0.23265983 0.29596862 1.7544599
-0.54954505 0.2961525 1.7555499
-0.2423583 0.29621568 1.7559245
-0.23912369 0.29613331 1.7554361
-0.23589085 0.29605094 1.7549478
-0.2328525 0.29938179 1.7559128
-0.22962053 0.2992985 1.7554243
-0.22639036 0.29921523 1.754936
-0.22316201 0.29913205 1.7544481
-0.17253654 0.29916885 1.7546639
-0.22334678 0.30254778 1.7559007
-0.54589599 0.30538529 1.7540023
-0.54276192 0.30540249 1.7541012
-0.53962761 0.30541974 1.7542002
-0.53649324 0.30543718 1.7543004
-0.53335857 0.30545461 1.7544005
-0.53022349 0.30547205 1.7545006
-0.52708811 0.30548948 1.7546009
-0.52395231 0.30550691 1.754701
-0.52081615 0.30552435 1.7548012
-0.51767963 0.30554181 1.7549014
-0.51454282 0.30555928 1.7550017
-0.51140559 0.30557671 1.7551018
-0.508268 0.30559418 1.7552021
-0.50513011 0.30561161 1.7553023
-0.50199181 0.30562907 1.7554026
-0.49885315 0.30564654 1.7555028
-0.49571416 0.305664 1.7556032
-0.49257478 0.30568147 1.7557034
-0.48943505 0.3056989 1.7558037
-0.48629498 0.3057164 1.7559041
-0.44467545 0.3085826 1.7541883
-0.44171593 0.30872619 1.7550045
-0.43875369 0.30886993 1.7558216
-0.19466968 0.30862266 1.754416
-0.44797972 0.31184456 1.754734
-0.44502082 0.31198969 1.7555507
-0.1916097 0.31195959 1.7553813
-0.18839021 0.31187287 1.7548934
-0.18517251 0.3117862 1.7544057
-0.45424145 0.31496185 1.7544631
-0.45128581 0.31510836 1.7552792
-0.18532592 0.31521246 1.7558591
-0.18210725 0.31512472 1.7553704
-0.17889038 0.31503704 1.754882
-0.1756753 0.31494939 1.7543938
-0.16945021 0.3151457 1.7554873
-0.46050104 0.31807804 1.7541915
-0.4575488 0.31822598 1.7550074
-0.45459378 0.31837404 1.755824
-0.17582081 0.31837824 1.7558471
-0.17260481 0.31828961 1.7553583
-0.1693906 0.31820104 1.7548698
-0.46380991 0.32134271 1.7547359
-0.46085832 0.32149222 1.7555524
-0.47006911 0.32445848 1.7544647
-0.46712086 0.3246094 1.7552809
-0.55269879 0.34365511 1.7555065
-0.56569558 0.2646251 1.7565234
-0.56253147 0.26462749 1.7565392
-0.55936736 0.26462987 1.7565551
-0.55620313 0.26463225 1.7565709
-0.55303848 0.26463446 1.7565856
-0.54987335 0.26463646 1.7565988
-0.54655474 0.26773262 1.756119
-0.54356396 0.26782015 1.7566931
-0.54057121 0.26790771 1.7572676
-0.5375765 0.26799539 1.7578425
-0.54697675 0.27111024 1.757475
-0.21726882 0.27436137 1.7579893
-0.21389487 0.27410233 1.7563294
-0.20444858 0.27418298 1.7568463
-0.22661604 0.27732733 1.7566854
-0.19490707 0.27730682 1.7565554
-0.17901623 0.28991124 1.7561166
-0.17591324 0.29318875 1.7567701
-0.24883294 0.29638064 1.7569022
-0.24559473 0.29629815 1.7564132
-0.17280795 0.29646868 1.7574241
-0.54970449 0.2994068 1.7560594
-0.24579826 0.29971531 1.7578689
-0.24255909 0.29963183 1.7573793
-0.23932175 0.29954842 1.7568902
-0.23608622 0.29946509 1.7564013
-0.54986346 0.30266261 1.7565672
-0.23628184 0.30288479 1.7578566
-0.23304537 0.30280045 1.7573673
-0.22981071 0.30271617 1.7568781
-0.22657785 0.30263194 1.7563893
-0.4831543 0.30573371 1.7560035
-0.48001325 0.305751 1.7561029
-0.47687182 0.30576831 1.7562022
-0.47373003 0.3057856 1.7563016
-0.47058791 0.30580291 1.7564011
-0.46744543 0.30582023 1.7565005
-0.4643026 0.30583754 1.7565999
-0.46115938 0.30585486 1.7566993
-0.45801583 0.30587217 1.7567987
-0.45487189 0.30588946 1.7568982
-0.45172763 0.30590677 1.7569976
-0.44858301 0.30592412 1.7570971
-0.44543806 0.30594143 1.7571967
-0.44229269 0.30595875 1.7572961
-0.43914703 0.30597609 1.7573956
-0.43600097 0.30599341 1.7574952
-0.43285456 0.30601075 1.7575947
-0.42970783 0.30602807 1.7576942
-0.4265607 0.30604541 1.7577938
-0.22676557 0.30605423 1.7578446
-0.43578866 0.30901378 1.7566394
-0.43282089 0.30915779 1.757458
-0.44205916 0.31213495 1.7563682
-0.43909466 0.3122803 1.7571861
-0.16961157 0.3122755 1.757159
-0.44832745 0.31525502 1.7560961
-0.44536635 0.31540179 1.7569138
-0.44240245 0.31554872 1.7577322
-0.19176856 0.31538796 1.7568368
-0.18854636 0.31530023 1.756348
-0.45163605 0.31852227 1.7566414
-0.44867554 0.3186706 1.7574595
-0.18870275 0.31873322 1.7578048
-0.18547957 0.3186444 1.7573149
-0.18225819 0.31855562 1.7568253
-0.17903861 0.3184669 1.7563361
-0.45790392 0.32164183 1.7563695
-0.45494682 0.32179165 1.7571875
-0.17918707 0.32190242 1.7577925
-0.17596658 0.32181275 1.7573028
-0.17274787 0.3217231 1.7568132
-0.16953096 0.32163352 1.7563239
-0.46416986 0.3247605 1.7560978
-0.46121612 0.32491171 1.7569155
-0.45825961 0.32506305 1.7577338
-0.16967152 0.3250716 1.7577801
-0.55285811 0.34692243 1.7560127
-0.55301756 0.35019165 1.7565191
-0.55317712 0.35346273 1.7570258
-0.54717952 0.26486659 1.7581264
-0.53457987 0.26808307 1.7584177
-0.53158122 0.26817083 1.7589934
-0.52858067 0.26825866 1.7595694
-0.54398382 0.27119893 1.7580501
-0.54098892 0.27128771 1.7586255
-0.53799206 0.27137652 1.7592013
-0.53499323 0.27146539 1.7597774
-0.54739946 0.27449307 1.7588332
-0.54440433 0.27458295 1.7594091
-0.54140723 0.27467287 1.7599853
-0.2206492 0.27462095 1.7596526
-0.20145296 0.27442017 1.7583661
-0.19845214 0.27465776 1.7598885
-0.2300026 0.27758935 1.7583451
-0.1919037 0.27754667 1.7580748
-0.18889511 0.27778691 1.7595966
-0.18560074 0.28078061 1.7584629
-0.18249597 0.28405896 1.7591174
-0.17938897 0.28733984 1.759773
-0.25873601 0.29365742 1.7595785
-0.25549349 0.29357946 1.7591113
-0.25226596 0.29351699 1.758737
-0.24915493 0.29359022 1.7591757
-0.24903923 0.29979882 1.7583587
-0.54754144 0.30313161 1.7592893
-0.54439801 0.30314875 1.7593887
-0.54125428 0.30316588 1.7594881
-0.53811049 0.3031832 1.7595886
-0.53496641 0.30320054 1.7596893
-0.53182203 0.30321795 1.7597902
-0.52867723 0.30323529 1.7598909
-0.52553207 0.30325264 1.7599916
-0.24924585 0.30322266 1.7598176
-0.24600214 0.30313811 1.7593269
-0.24276023 0.30305362 1.7588365
-0.23952012 0.30296916 1.7583463
-0.42357114 0.3061769 1.758549
-0.42059445 0.30631971 1.7593694
-0.23971884 0.30639562 1.7598052
-0.23647781 0.30631018 1.7593145
-0.23323858 0.30622479 1.7588241
-0.23000117 0.3061395 1.7583342
-0.42985034 0.30930191 1.7582773
-0.42687699 0.30944616 1.7590972
-0.42390078 0.30959046 1.7599176
-0.23019202 0.30956858 1.7597932
-0.16977312 0.3093996 1.7588327
-0.43612739 0.31242582 1.7580048
-0.43315738 0.31257144 1.7588242
-0.43018457 0.3127172 1.7596444
-0.43943581 0.31569576 1.7585514
-0.4364664 0.31584296 1.7593713
-0.4457123 0.31881911 1.7582785
-0.44274625 0.31896773 1.7590982
-0.43977746 0.3191165 1.7599186
-0.1919277 0.31882206 1.7582947
-0.45198691 0.32194155 1.7580061
-0.18240936 0.32199219 1.7582825
-0.44902429 0.32209161 1.7588255
-0.44605887 0.32224181 1.7596457
-0.19208705 0.32226175 1.7597545
-0.18885934 0.32217184 1.7592635
-0.18563345 0.32208198 1.7587729
-0.18256077 0.32543442 1.759742
-0.17933576 0.32534364 1.7592511
-0.17611255 0.32525289 1.7587605
-0.17289114 0.32516223 1.7582701
-0.17303465 0.32860708 1.7597296
-0.56713599 0.26212168 1.760996
-0.56396389 0.26212406 1.761012
-0.56079167 0.26212642 1.7610278
-0.55761945 0.2621288 1.7610438
-0.55444688 0.26213104 1.7610589
-0.5512737 0.26213303 1.7610723
-0.54810047 0.262135 1.7610855
-0.54507387 0.26538584 1.761573
-0.52557814 0.26834655 1.7601459
-0.52257359 0.26843446 1.7607226
-0.51956713 0.26852244 1.7612997
-0.51655865 0.26861051 1.7618773
-0.53199238 0.27155432 1.7603539
-0.52898967 0.27164334 1.7609309
-0.52598488 0.27173236 1.7615081
-0.21128194 0.2716482 1.7609625
-0.20801243 0.27152768 1.7601812
-0.20501421 0.27176303 1.7617068
-0.53840822 0.2747629 1.7605621
-0.53540719 0.27485296 1.7611392
-0.53240418 0.27494305 1.7617165
-0.22403598 0.27488104 1.761319
-0.19544613 0.27489579 1.7614136
-0.54781336 0.27787635 1.7601631
-0.54482549 0.27797219 1.7607702
-0.54182625 0.27806333 1.7613474
-0.53882498 0.27815449 1.761925
-0.54797208 0.2811335 1.760673
-0.54813087 0.28439254 1.7611833
-0.54828978 0.28765348 1.7616938
-0.28450239 0.29085997 1.7618635
-0.28124878 0.29078263 1.761395
-0.27799693 0.29070535 1.7609268
-0.27481303 0.29069817 1.7608833
-0.27170384 0.29077077 1.7613231
-0.2685931 0.2908434 1.7617631
-0.17627963 0.29062319 1.7604291
-0.27172342 0.29396978 1.7614501
-0.26847398 0.29389164 1.7609818
-0.26522627 0.29381353 1.7605138
-0.26198027 0.29373544 1.760046
-0.173168 0.29390901 1.7610859
-0.27497458 0.29404798 1.7619185
-0.26544622 0.2972362 1.7619739
-0.26219749 0.29715717 1.7615054
-0.2589505 0.29707816 1.7610371
-0.25570521 0.29699922 1.7605691
-0.25246164 0.2969203 1.7601013
-0.252671 0.30034479 1.7615609
-0.52238661 0.30327001 1.7600925
-0.51924074 0.30328739 1.7601933
-0.51609451 0.30330476 1.7602941
-0.51294792 0.30332214 1.7603949
-0.50980097 0.30333951 1.7604958
-0.50665367 0.30335689 1.7605966
-0.503506 0.30337426 1.7606975
-0.50035793 0.30339164 1.7607983
-0.49720958 0.30340904 1.7608993
-0.49406081 0.30342641 1.7610002
-0.49091163 0.30344376 1.7611008
-0.48776186 0.30346096 1.7612007
-0.48461178 0.30347821 1.7613007
-0.48146132 0.30349541 1.7614006
-0.4783105 0.30351263 1.7615006
-0.47515935 0.30352989 1.7616006
-0.47200781 0.30354711 1.7617006
-0.46885589 0.30356431 1.7618005
-0.46570364 0.30358157 1.7619005
-0.41761497 0.30646268 1.7601905
-0.41463268 0.30660579 1.7610123
-0.41164756 0.30674896 1.7618346
-0.24945283 0.30665222 1.761279
-0.24620634 0.3065666 1.7607874
-0.2429617 0.30648109 1.7602962
-0.16993491 0.30651814 1.7605089
-0.42092183 0.30973494 1.7607388
-0.41794008 0.30987951 1.7615608
-0.2431635 0.30991426 1.7617583
-0.23991789 0.30982774 1.7612665
-0.23667412 0.30974129 1.760775
-0.23343214 0.30965489 1.7602838
-0.42720899 0.31286311 1.7604654
-0.42423064 0.31300914 1.7612871
-0.23362619 0.31309089 1.7617471
-0.23038334 0.31300357 1.7612557
-0.43349424 0.3159903 1.760192
-0.43051928 0.31613776 1.7610135
-0.42754152 0.31628537 1.7618357
-0.4368059 0.3192654 1.7607398
-0.4338316 0.31941447 1.7615619
-0.44309071 0.32239217 1.7604667
-0.44011977 0.32254264 1.7612884
-0.19224665 0.32570714 1.7612166
-0.18901621 0.32561615 1.7607247
-0.18578759 0.32552525 1.7602332
-0.18594196 0.32897425 1.7616959
-0.18271244 0.32888237 1.7612039
-0.1794847 0.32879055 1.7607121
-0.17625877 0.32869878 1.7602208
-0.17640524 0.3321504 1.7616833
-0.17317837 0.33205763 1.7611914
-0.5420602 0.26546642 1.762108
-0.53904474 0.2655471 1.7626435
-0.53602743 0.26562786 1.7631794
-0.53300852 0.26570871 1.7637162
-0.51354825 0.2686986 1.7624552
-0.51053584 0.26878679 1.7630335
-0.50752145 0.268875 1.7636122
-0.52297819 0.2718215 1.7620858
-0.51996952 0.27191067 1.7626638
-0.51695883 0.2719999 1.7632422
-0.21466237 0.27190569 1.7626315
-0.20201078 0.27199876 1.763235
-0.51394624 0.27208918 1.7638211
-0.52939922 0.27503324 1.7622943
-0.52639234 0.27512348 1.7628726
-0.52338338 0.27521378 1.7634511
-0.22742929 0.27514172 1.7629895
-0.19243491 0.27513421 1.7629414
-0.5358218 0.27824575 1.7625029
-0.53281659 0.27833703 1.7630812
-0.52980947 0.27842841 1.76366
-0.18598807 0.27818727 1.7621326
-0.54524732 0.28136671 1.7621335
-0.54224586 0.281459 1.7627115
-0.53924245 0.28155136 1.76329
-0.53623706 0.28164378 1.7638688
-0.18287686 0.28147134 1.7627888
-0.54566979 0.28476644 1.7634988
-0.1797633 0.28475779 1.7634453
-0.30707106 0.28797856 1.7636847
-0.30380809 0.28790191 1.7632153
-0.30054685 0.28782529 1.7627461
-0.29741523 0.28787249 1.7630351
-0.29430789 0.28794447 1.7634759
-0.29119897 0.28801647 1.763917
-0.5484488 0.29091632 1.7622048
-0.29753414 0.29116976 1.7637399
-0.29427359 0.29109225 1.7632705
-0.29101479 0.29101479 1.7628012
-0.28775772 0.29093736 1.7623322
-0.26548079 0.29091609 1.7622033
-0.26236692 0.29098877 1.7626437
-0.25925153 0.29106155 1.7630844
-0.25613457 0.29113433 1.7635252
-0.25301602 0.29120713 1.7639663
-0.54860789 0.29418105 1.7627159
-0.28799659 0.29436114 1.7637951
-0.28473848 0.29428279 1.7633256
-0.28148213 0.29420447 1.7628564
-0.27822751 0.29412621 1.7623874
-0.54876745 0.29744786 1.7632285
-0.27845848 0.29755276 1.7638505
-0.27520281 0.29747355 1.7633809
-0.2719489 0.29739439 1.7629117
-0.2686967 0.29731527 1.7624426
-0.54892707 0.30071658 1.7637415
-0.26891983 0.30074465 1.7639061
-0.26566657 0.30066457 1.7634366
-0.26241511 0.30058458 1.7629673
-0.25916535 0.3005046 1.7624983
-0.25591731 0.3004247 1.7620295
-0.17025945 0.30073863 1.763871
-0.46255106 0.30359882 1.7620007
-0.45939809 0.30361605 1.7621007
-0.45624477 0.30363327 1.7622007
-0.45309111 0.30365053 1.7623008
-0.44993705 0.30366775 1.7624009
-0.44678268 0.30368501 1.762501
-0.44362789 0.30370227 1.762601
-0.44047278 0.30371949 1.7627012
-0.43731731 0.30373675 1.7628013
-0.43416148 0.303754 1.7629014
-0.4310053 0.30377126 1.7630016
-0.42784876 0.30378851 1.7631017
-0.42469186 0.3038058 1.763202
-0.4215346 0.30382305 1.7633021
-0.41837695 0.30384031 1.7634022
-0.41521898 0.30385756 1.7635025
-0.41206065 0.30387485 1.7636027
-0.40890193 0.30389211 1.7637029
-0.40574288 0.30390939 1.7638031
-0.40258348 0.30392665 1.7639034
-0.25938058 0.30393675 1.7639619
-0.25612977 0.30385584 1.7634923
-0.25288072 0.30377495 1.763023
-0.17009704 0.30363116 1.7621884
-0.40865961 0.30689225 1.7626576
-0.40566891 0.30703568 1.7634815
-0.41495556 0.31002426 1.7623836
-0.41196823 0.31016913 1.7632071
-0.25291118 0.31017408 1.7632353
-0.24966013 0.31008741 1.7627426
-0.24641091 0.31000081 1.7622503
-0.42124954 0.31315532 1.7621096
-0.41826561 0.31330162 1.7629329
-0.41527891 0.31344807 1.763757
-0.24661581 0.31344074 1.7637157
-0.24336569 0.31335321 1.7632232
-0.24011739 0.31326574 1.762731
-0.23687088 0.31317827 1.7622389
-0.42456102 0.31643313 1.7626587
-0.42157772 0.31658101 1.7634825
-0.23706801 0.31662104 1.7637055
-0.23382057 0.31653261 1.7632129
-0.43085447 0.31956363 1.7623845
-0.42787457 0.31971297 1.763208
-0.43714607 0.32269329 1.7621109
-0.43416956 0.32284403 1.7629342
-0.43119028 0.32299492 1.7637582
-0.19240651 0.32915825 1.7626811
-0.18917333 0.32906622 1.7621883
-0.18933073 0.33252203 1.7636545
-0.18609662 0.33242902 1.7631612
-0.18286434 0.33233607 1.7626681
-0.17963387 0.33224317 1.7621756
-0.17978333 0.33570161 1.7636416
-0.17655194 0.33560774 1.7631484
-0.17332236 0.33551392 1.7626556
-0.55177432 0.34187746 1.7626715
-0.55193406 0.34515762 1.7631818
-0.55209386 0.34843966 1.7636924
-0.56540358 0.25960782 1.7655075
-0.56222326 0.25961018 1.7655234
-0.55904299 0.25961256 1.7655395
-0.55586243 0.25961483 1.765555
-0.55268115 0.25961679 1.7655684
-0.54949987 0.25961876 1.7655818
-0.54631847 0.25962073 1.7655952
-0.54623133 0.26276433 1.7653135
-0.52998769 0.26578963 1.7642533
-0.52696502 0.26587057 1.7647905
-0.52394056 0.26595157 1.7653283
-0.5209142 0.26603264 1.7658663
-0.5045051 0.26896328 1.7641913
-0.50148672 0.26905161 1.7647706
-0.49844113 0.26912636 1.7652609
-0.49531212 0.26915675 1.7654603
-0.4921824 0.26918712 1.7656596
-0.20865524 0.26918116 1.7656205
-0.51093161 0.27217853 1.7644002
-0.50791502 0.27226794 1.7649798
-0.50489646 0.2723574 1.7655598
-0.22144268 0.27242228 1.7659805
-0.21804921 0.27216363 1.7643037
-0.19900213 0.27223492 1.7647659
-0.52037251 0.27530411 1.76403
-0.51735967 0.27539453 1.7646093
-0.51434481 0.27548501 1.7651891
-0.51132798 0.27557552 1.7657691
-0.23084824 0.27542585 1.76481
-0.18941845 0.27537304 1.7644717
-0.52680033 0.27851981 1.7642391
-0.52378923 0.2786113 1.7648185
-0.52077615 0.27870286 1.7653984
-0.51776111 0.27879444 1.7659786
-0.23401456 0.27858877 1.7646757
-0.53322965 0.28173628 1.764448
-0.53022033 0.28182882 1.7650276
-0.52720904 0.28192145 1.7656077
-0.23718037 0.28175119 1.7645414
-0.54266614 0.28485996 1.7640778
-0.53966051 0.2849535 1.7646571
-0.53665292 0.28504711 1.7652369
-0.53364342 0.28514081 1.765817
-0.33296055 0.28516716 1.7659804
-0.32968643 0.28509116 1.7655097
-0.32641408 0.28501523 1.7650393
-0.32317659 0.28496853 1.7647502
-0.32007271 0.28503987 1.765192
-0.31696725 0.28511122 1.7656339
-0.24034573 0.28491315 1.7644073
-0.54609293 0.2881715 1.7648664
-0.54308712 0.28826618 1.7654462
-0.32014033 0.28828558 1.765565
-0.31687042 0.28820878 1.7650946
-0.31360221 0.28813198 1.7646244
-0.31033579 0.28805524 1.7641544
-0.28808853 0.28808853 1.7643583
-0.28497651 0.28816062 1.7647997
-0.28186297 0.28823274 1.7652415
-0.27874783 0.2883049 1.7656834
-0.24351059 0.28807461 1.764273
-0.17664762 0.28804702 1.764104
-0.31059363 0.29148018 1.7656204
-0.30732614 0.29140252 1.7651498
-0.3040604 0.29132488 1.7646797
-0.30079639 0.29124731 1.7642096
-0.24989595 0.29127997 1.7644076
-0.24667473 0.29123533 1.7641371
-0.17352961 0.29133871 1.7647634
-0.30104634 0.29467499 1.7656757
-0.29778129 0.29459646 1.7652051
-0.29451799 0.29451799 1.7647349
-0.29125643 0.29443955 1.7642649
-0.29149845 0.29787001 1.765731
-0.28823584 0.29779062 1.7652605
-0.28497499 0.29771128 1.7647902
-0.28171584 0.29763201 1.7643201
-0.17042238 0.29784098 1.765559
-0.54604399 0.30088139 1.7647082
-0.54289085 0.30089843 1.7648082
-0.53973752 0.30091563 1.7649089
-0.53658402 0.30093288 1.7650102
-0.53343022 0.30095017 1.7651116
-0.530276 0.30096745 1.765213
-0.52712142 0.30098474 1.7653143
-0.52396649 0.30100203 1.7654158
-0.52081126 0.30101934 1.7655172
-0.51765561 0.30103663 1.7656187
-0.51449955 0.30105394 1.7657201
-0.51134318 0.30107123 1.7658216
-0.50818646 0.30108851 1.765923
-0.28195003 0.3010653 1.7657868
-0.27868989 0.30098507 1.7653162
-0.27543145 0.30090487 1.764846
-0.27217478 0.30082473 1.7643759
-0.39942372 0.30394396 1.7640038
-0.39628044 0.30397415 1.7641791
-0.39321327 0.30406371 1.7646987
-0.39014426 0.30415326 1.7652186
-0.38707343 0.30424291 1.7657388
-0.27240103 0.30426079 1.7658427
-0.26914331 0.30417973 1.7653722
-0.26588732 0.30409867 1.7649018
-0.26263309 0.30401769 1.7644317
-0.40267536 0.30717921 1.7643059
-0.399663 0.30731061 1.7650605
-0.39659527 0.30740115 1.7655807
-0.26285142 0.30745652 1.7658986
-0.25959614 0.30737457 1.7654279
-0.25634262 0.3072927 1.7649577
-0.2530908 0.30721083 1.7644875
-0.4089781 0.31031412 1.7640314
-0.40598521 0.31045926 1.7648565
-0.40298948 0.31060454 1.7656823
-0.41228941 0.31359464 1.7645818
-0.40929711 0.31374136 1.7654073
-0.25312161 0.31361607 1.7647023
-0.2498678 0.31352839 1.7642089
-0.41859162 0.31672904 1.764307
-0.41560274 0.31687719 1.7651323
-0.41261107 0.31702548 1.7659584
-0.25007594 0.31697524 1.7656785
-0.24682124 0.31688663 1.7651849
-0.24356835 0.31679803 1.7646915
-0.24031727 0.31670952 1.7641983
-0.16715539 0.31679925 1.7646983
-0.42489189 0.31986243 1.7640324
-0.2340153 0.31998011 1.7646813
-0.23083375 0.31998333 1.7646992
-0.42190641 0.32001203 1.7648574
-0.41891816 0.32016179 1.7656833
-0.24051754 0.32015911 1.7656685
-0.2372655 0.32006958 1.7651747
-0.23095922 0.32334292 1.7656584
-0.19578481 0.3294915 1.7644658
-0.19904357 0.33280087 1.7651334
-0.19580419 0.33270794 1.7646406
-0.19256657 0.33261499 1.7641475
-0.18948828 0.33598343 1.7651222
-0.18625151 0.33588946 1.7646285
-0.18301652 0.33579555 1.7641351
-0.19272688 0.33607745 1.7656162
-0.18316889 0.33926064 1.7656038
-0.179933 0.33916575 1.7651099
-0.17669889 0.33907086 1.764616
-0.55225384 0.35172361 1.7642033
-0.54365575 0.26305923 1.7672948
-0.54063189 0.2631394 1.7678334
-0.51788604 0.26611373 1.7664046
-0.51485598 0.26619488 1.7669433
-0.51182407 0.26627609 1.7674823
-0.48914191 0.26926705 1.7661837
-0.48611385 0.26935488 1.7667599
-0.48308381 0.2694428 1.7673365
-0.48005182 0.26953077 1.7679135
-0.21204218 0.26943704 1.7672988
-0.20558301 0.26932967 1.7665945
-0.50187594 0.27244693 1.7661402
-0.4988395 0.27252892 1.7666718
-0.49570805 0.27255973 1.7668715
-0.49257588 0.27259052 1.7670711
-0.489443 0.27262136 1.7672709
-0.48630944 0.27265218 1.7674707
-0.48317513 0.27268299 1.7676705
-0.4800401 0.27271381 1.7678703
-0.22484262 0.27268147 1.7676607
-0.19598827 0.27247149 1.7662995
-0.50830925 0.27566612 1.7663497
-0.50528848 0.27575681 1.7669306
-0.50226569 0.27584749 1.7675118
-0.18639675 0.27561229 1.7660047
-0.51474404 0.27888608 1.7665591
-0.51172501 0.27897781 1.7671402
-0.50870401 0.2790696 1.7677215
-0.18325944 0.27887306 1.7664766
-0.52419573 0.2820141 1.766188
-0.52118045 0.28210685 1.7667688
-0.51816314 0.28219962 1.7673498
-0.51514393 0.28229249 1.7679315
-0.35563222 0.28227311 1.7678101
-0.35234869 0.2821978 1.7673385
-0.34906685 0.28212252 1.766867
-0.34588772 0.28212962 1.7669114
-0.34278569 0.28220031 1.7673541
-0.3396821 0.28227106 1.7677972
-0.18013954 0.28216547 1.767136
-0.53063184 0.28523454 1.7663975
-0.52761829 0.28532833 1.7669784
-0.52460277 0.28542221 1.7675596
-0.34607452 0.28547162 1.7678657
-0.34279341 0.28539544 1.7673939
-0.33951402 0.2853193 1.7669225
-0.33623642 0.28524321 1.7664514
-0.31386021 0.28518263 1.7660761
-0.31075162 0.28525403 1.7665184
-0.30764148 0.28532553 1.766961
-0.30452979 0.28539702 1.7674038
-0.30141652 0.28546858 1.7678468
-0.17701729 0.28546029 1.7677957
-0.5400793 0.28836092 1.7660265
-0.5370695 0.28845572 1.766607
-0.53405774 0.28855059 1.7671881
-0.53104395 0.28864554 1.7677695
-0.33651617 0.28867027 1.7679211
-0.33323753 0.28859326 1.7674494
-0.32996061 0.28851628 1.7669779
-0.32668543 0.28843933 1.7665067
-0.32341203 0.28836244 1.7660358
-0.27563116 0.28837711 1.7661256
-0.27251291 0.28844935 1.7665679
-0.26939312 0.28852162 1.7670106
-0.26627174 0.28859392 1.7674534
-0.26314878 0.28866625 1.7678964
-0.54651672 0.29158181 1.7662359
-0.54350871 0.29167768 1.7668167
-0.54049867 0.29177365 1.7673979
-0.53748667 0.29186964 1.7679794
-0.32695726 0.29186916 1.7679765
-0.32368106 0.29179129 1.7675048
-0.32040659 0.29171345 1.7670333
-0.31713387 0.29163566 1.7665621
-0.31386289 0.29155791 1.7660911
-0.54694116 0.29499742 1.7676077
-0.31412396 0.29498953 1.7675602
-0.31085196 0.29491082 1.7670888
-0.30758166 0.29483217 1.7666174
-0.30431312 0.29475355 1.7661464
-0.17058581 0.29493809 1.7672521
-0.29476282 0.29794943 1.7662019
-0.30456629 0.29818794 1.7676157
-0.30129671 0.2981084 1.7671441
-0.29802889 0.29802889 1.7666728
-0.50502932 0.30110583 1.7660245
-0.50187188 0.30112311 1.7661259
-0.49871406 0.30114043 1.7662275
-0.49555564 0.30115759 1.7663282
-0.4923968 0.30117473 1.7664287
-0.48923764 0.3011919 1.7665293
-0.48607805 0.30120903 1.7666298
-0.48291817 0.30122617 1.7667304
-0.47975791 0.30124334 1.766831
-0.47659725 0.30126047 1.7669315
-0.47343627 0.30127764 1.7670321
-0.47027493 0.30129477 1.7671328
-0.46711326 0.30131197 1.7672335
-0.46395117 0.30132911 1.7673341
-0.46078873 0.30134627 1.7674347
-0.45762593 0.30136341 1.7675353
-0.4544628 0.3013806 1.7676361
-0.45129931 0.30139777 1.7677368
-0.44813541 0.30141494 1.7678374
-0.4449712 0.3014321 1.7679381
-0.29500806 0.30138662 1.7676715
-0.29174095 0.30130625 1.7672
-0.28847557 0.30122587 1.7667286
-0.28521195 0.30114558 1.7662576
-0.38400081 0.30433258 1.7662593
-0.38092637 0.30442232 1.7667801
-0.37785012 0.30451214 1.7673013
-0.37477207 0.30460197 1.7678227
-0.2854493 0.30458555 1.7677275
-0.28218463 0.30450431 1.7672559
-0.27892166 0.30442309 1.7667845
-0.27566049 0.30434194 1.7663136
-0.39352572 0.30749175 1.766101
-0.39045435 0.30758241 1.7666217
-0.3873812 0.30767313 1.7671428
-0.38430622 0.3077639 1.7676641
-0.2758899 0.30778471 1.7677835
-0.27262768 0.30770257 1.7673119
-0.26936719 0.30762053 1.7668406
-0.26610842 0.30753848 1.7663695
-0.39998066 0.31074196 1.7664634
-0.39691058 0.31083357 1.7669843
-0.39383867 0.31092528 1.7675055
-0.26632991 0.31098402 1.7678396
-0.26307011 0.31090105 1.7673678
-0.25981209 0.31081814 1.7668965
-0.25655577 0.31073526 1.7664254
-0.40630201 0.31388822 1.7662337
-0.16731523 0.31391522 1.7663857
-0.4033041 0.31403521 1.7670608
-0.40029877 0.31417871 1.7678683
-0.2567693 0.31418356 1.7678956
-0.40961656 0.31717393 1.7667853
-0.40661928 0.31732249 1.7676129
-0.25333247 0.3170639 1.7661724
-0.23103374 0.31707388 1.7662281
-0.41592708 0.32031167 1.7665099
-0.4129332 0.32046169 1.7673372
-0.25354373 0.32051757 1.7676454
-0.25028446 0.32042789 1.7671509
-0.24702701 0.32033825 1.7666565
-0.24377136 0.32024866 1.7661624
-0.24397467 0.32370496 1.7676353
-0.2407181 0.32361439 1.7671409
-0.23746333 0.32352388 1.7666465
-0.23421037 0.32343337 1.7661524
-0.23440573 0.32689235 1.7676255
-0.23115183 0.32680085 1.7671309
-0.20569922 0.33645377 1.7675931
-0.20245333 0.33635947 1.7670977
-0.19920935 0.33626539 1.7666035
-0.19596723 0.33617142 1.7661098
-0.19613051 0.33964065 1.7675815
-0.19288746 0.3395457 1.7670872
-0.18964612 0.33945063 1.7665925
-0.1864066 0.33935562 1.766098
-0.17376956 0.33956805 1.7672036
-0.18656194 0.3428275 1.7675698
-0.18332151 0.34273151 1.7670748
-0.18008287 0.34263554 1.7665801
-0.17684604 0.34253964 1.7660856
-0.53760618 0.26321962 1.7683723
-0.53457856 0.26329988 1.7689115
-0.5315491 0.2633802 1.769451
-0.52851784 0.26346055 1.7699909
-0.50879037 0.26635736 1.7680217
-0.50575483 0.26643866 1.7685614
-0.50271738 0.26652002 1.7691014
-0.49967808 0.26660141 1.7696416
-0.47701785 0.26961878 1.7684908
-0.47398186 0.26970685 1.7690685
-0.4709439 0.26979497 1.7696465
-0.21543571 0.26969361 1.7689816
-0.47690439 0.27274466 1.7680702
-0.473768 0.2727755 1.7682703
-0.47063082 0.27280635 1.7684702
-0.46749303 0.27283722 1.7686703
-0.46435446 0.2728681 1.7688704
-0.4612152 0.27289897 1.7690705
-0.45807523 0.27292985 1.7692707
-0.45493454 0.27296072 1.7694709
-0.45179316 0.27299163 1.7696712
-0.44865105 0.2730225 1.7698715
-0.22824906 0.27294117 1.7693442
-0.49923855 0.27593696 1.768085
-0.49610463 0.27596816 1.768285
-0.49296999 0.27599937 1.768485
-0.48983467 0.2760306 1.7686851
-0.4866986 0.27606183 1.7688851
-0.48356184 0.27609307 1.7690853
-0.48042437 0.2761243 1.7692854
-0.47728619 0.27615556 1.7694857
-0.47414732 0.27618682 1.769686
-0.4710077 0.27621806 1.7698863
-0.50568104 0.27916145 1.7683034
-0.50265604 0.27925336 1.7688856
-0.49962911 0.27934533 1.7694682
-0.49650183 0.27938205 1.7697008
-0.49336472 0.27941367 1.769901
-0.37835091 0.27937305 1.7696437
-0.37505788 0.27929842 1.769171
-0.37176663 0.27922386 1.7686987
-0.36865452 0.27928373 1.7690779
-0.36555442 0.2793538 1.7695218
-0.36245283 0.27942398 1.7699664
-0.51212269 0.28238538 1.7685133
-0.50909942 0.28247839 1.7690957
-0.50607425 0.28257141 1.7696784
-0.36878398 0.28257474 1.7696992
-0.36549342 0.28249928 1.7692266
-0.36220461 0.28242385 1.7687542
-0.35891753 0.28234845 1.7682821
