# .PCD v0.7 - Point Cloud Data file format
VERSION 0.7
FIELDS x y z
SIZE 4 4 4
TYPE F F F
COUNT 1 1 1
WIDTH 735
HEIGHT 1
VIEWPOINT 0 0 0 1 0 0 0
POINTS 735
DATA ascii
0.42055827 0.38050511 1.4799771
0.40814582 0.3787058 1.4833884
0.41215941 0.37870491 1.483385
0.41751212 0.37870491 1.4833848
0.42286485 0.37870491 1.483385
0.42821759 0.37870491 1.4833851
0.43357033 0.37870494 1.4833851
0.43758485 0.37870494 1.4833851
0.44159943 0.37870497 1.4833852
0.44695216 0.37870497 1.4833852
0.4523049 0.37870497 1.4833853
0.45765764 0.37870499 1.4833853
0.46301037 0.37870502 1.4833853
0.46836317 0.37870505 1.4833856
0.47237793 0.37870523 1.4833863
0.47639281 0.37870553 1.4833874
0.48174596 0.37870586 1.4833887
0.48709914 0.37870622 1.4833901
0.49249765 0.37874132 1.4835277
0.4979735 0.37883461 1.483893
0.50345206 0.37892795 1.4842587
0.5075627 0.37899798 1.484533
0.511675 0.37906802 1.4848073
0.40836212 0.38158429 1.4841746
0.41189671 0.38247657 1.4824414
0.41679397 0.38206184 1.4808339
0.42261565 0.3825368 1.4809493
0.42754942 0.38212278 1.4810703
0.43300024 0.38221678 1.4814343
0.43793592 0.38180235 1.4815553
0.44169942 0.38286623 1.4822245
0.446639 0.38245186 1.4823457
0.4520992 0.38254598 1.4827104
0.45756209 0.38264018 1.4830755
0.46302769 0.38273436 1.4834405
0.46797252 0.38231945 1.4835619
0.47175467 0.38338494 1.4842328
0.47617841 0.38246071 1.48411
0.48197007 0.38155955 1.4840784
0.48744535 0.38165358 1.4844441
0.49292335 0.38174763 1.4848099
0.41286221 0.38786778 1.4843088
0.4174653 0.38802931 1.483219
0.42283028 0.38804093 1.4832634
0.42828798 0.38813651 1.4836287
0.43323061 0.38772193 1.4837499
0.43699753 0.38879004 1.4844209
0.44175309 0.38686854 1.483901
0.44721782 0.38696384 1.4842666
0.45268524 0.38705921 1.4846324
0.4567875 0.38713074 1.4849068
0.41928151 0.39249039 1.4849122
0.39781433 0.46210757 1.4847842
0.40160868 0.46318913 1.4839578
0.40670365 0.46289247 1.4830099
0.4118782 0.46269321 1.4823734
0.41713396 0.46258932 1.4820416
0.42248297 0.46259049 1.4820452
0.42793947 0.46270815 1.4824212
0.43302831 0.46335307 1.4830561
0.43689632 0.46278 1.4840759
0.44066477 0.46209529 1.4847448
0.40315068 0.46744049 1.4847053
0.40732637 0.46800193 1.4836535
0.4119862 0.46816695 1.4827623
0.41717044 0.46798033 1.4821712
0.42254212 0.46800601 1.4822525
0.42813361 0.46827143 1.4830931
0.43228993 0.46708727 1.4835835
0.43528259 0.46742651 1.484661
0.40395987 0.378461 1.4876854
0.40726379 0.37775719 1.4866804
0.41326568 0.37703782 1.4873664
0.41863281 0.37703785 1.4873666
0.42265809 0.37703785 1.4873666
0.42668343 0.37703788 1.4873667
0.43205053 0.37703788 1.4873667
0.43741766 0.37703791 1.4873668
0.44278473 0.37703791 1.4873668
0.44815189 0.37703794 1.4873669
0.45351896 0.37703794 1.4873669
0.4575443 0.37703797 1.487367
0.46156961 0.37703797 1.487367
0.46693674 0.377038 1.4873672
0.47230384 0.377038 1.4873672
0.47767094 0.377038 1.4873672
0.48303807 0.37703803 1.4873673
0.48840517 0.37703806 1.4873674
0.49243051 0.37703806 1.4873674
0.49645582 0.37703806 1.4873674
0.50182295 0.37703806 1.4873674
0.50719005 0.37703809 1.4873675
0.51255715 0.37703812 1.4873676
0.51754224 0.3780998 1.4862704
0.52296984 0.37814656 1.4864537
0.52786499 0.37857845 1.4863936
0.53164804 0.37783203 1.4869734
0.53654522 0.37826395 1.4869134
0.54197776 0.37831095 1.4870975
0.54748744 0.37840998 1.4874871
0.55137622 0.37965807 1.4871185
0.40427795 0.38278809 1.4888568
0.40744689 0.38332173 1.4857211
0.47827837 0.3844983 1.485087
0.48238683 0.38456941 1.4853617
0.48786694 0.38466424 1.485728
0.49334979 0.38475913 1.4860945
0.49809054 0.38283792 1.4855738
0.50189149 0.38390514 1.4862466
0.50631875 0.3829796 1.4861234
0.51211762 0.38207722 1.4860919
0.51760781 0.38217145 1.4864585
0.52310061 0.38226581 1.4868252
0.52859622 0.38236016 1.4871924
0.53271961 0.38243097 1.4874678
0.53684467 0.38250178 1.4877431
0.54234707 0.38259625 1.4881107
0.54781377 0.38266405 1.4883744
0.55372173 0.38183036 1.488615
0.40450978 0.38569537 1.4897106
0.4073998 0.38682914 1.4871806
0.44213504 0.38988262 1.4851841
0.44623688 0.38995475 1.4854587
0.4595232 0.38717845 1.4850898
0.46362817 0.38725007 1.4853644
0.46773446 0.38732165 1.4856391
0.47184247 0.3873933 1.485914
0.47732201 0.38748887 1.4862804
0.4828043 0.38758451 1.4866471
0.48828924 0.38768017 1.4870141
0.4924047 0.38775194 1.4872894
0.49652183 0.38782376 1.4875648
0.50201356 0.38791955 1.4879322
0.50781918 0.38701701 1.4879011
0.51278311 0.38660142 1.488023
0.51828063 0.38669688 1.4883907
0.52324647 0.38628092 1.4885126
0.52706629 0.38735184 1.4891882
0.53150028 0.38642415 1.4890646
0.53731 0.38551989 1.4890327
0.54281729 0.3856152 1.4894009
0.54827708 0.38567531 1.4896331
0.55365252 0.38567543 1.4896336
0.55768394 0.3856754 1.4896334
0.40857098 0.39156637 1.4881884
0.41248438 0.39192757 1.4861635
0.41667962 0.39256313 1.4851874
0.42350286 0.39267793 1.4856217
0.42809868 0.3932066 1.4876219
0.44897231 0.39000282 1.4856418
0.45307684 0.39007497 1.4859166
0.45855176 0.39017117 1.4862832
0.46265966 0.39024338 1.4865582
0.46676928 0.39031562 1.4868333
0.47225094 0.39041197 1.4872004
0.4777354 0.39050835 1.4875677
0.48185042 0.39058068 1.4878432
0.4097659 0.39633095 1.4892765
0.41345254 0.39734489 1.4880404
0.41801247 0.39655384 1.4867522
0.42174149 0.39759147 1.4872891
0.42655015 0.39700925 1.4884609
0.41643098 0.4016546 1.48909
0.4217878 0.40163851 1.4890304
0.39205712 0.46187654 1.4883549
0.39663944 0.46103108 1.487074
0.40256238 0.46026298 1.4874806
0.40793073 0.46026394 1.4874836
0.4132995 0.46026534 1.4874883
0.41732439 0.4602645 1.4874855
0.42135009 0.46026459 1.4874858
0.42671797 0.46026498 1.4874871
0.43208379 0.46026319 1.4874811
0.4374513 0.46026319 1.4874814
0.4432106 0.46109995 1.4872953
0.4471983 0.4619714 1.4886591
0.39354733 0.46607822 1.4889109
0.39711586 0.46688071 1.487187
0.40077552 0.46779487 1.4858309
0.43840039 0.46789521 1.4861497
0.44239292 0.4665474 1.4875512
0.40346965 0.47049117 1.48588
0.40591016 0.47021276 1.4850007
0.43270957 0.47022 1.4850236
0.43570539 0.47056183 1.4861032
0.40311012 0.37620583 1.4911609
0.40765297 0.37536365 1.4913768
0.41168922 0.37536371 1.4913769
0.41707081 0.37536374 1.4913771
0.42245242 0.37536377 1.4913774
0.42783403 0.37536383 1.4913774
0.43321562 0.37536386 1.4913776
0.4385972 0.37536389 1.4913777
0.44263342 0.37536392 1.4913778
0.44666964 0.37536395 1.4913779
0.45205122 0.37536401 1.4913781
0.45743287 0.37536401 1.4913783
0.46281445 0.37536407 1.4913784
0.46819609 0.37536412 1.4913785
0.47357768 0.37536412 1.4913788
0.47761393 0.37536418 1.4913789
0.48165011 0.37536418 1.491379
0.48703173 0.37536424 1.4913791
0.49241334 0.37536427 1.4913793
0.49779499 0.3753643 1.4913795
0.50317657 0.37536436 1.4913795
0.50855821 0.37536439 1.4913797
0.5125944 0.37536442 1.4913799
0.51663065 0.37536445 1.49138
0.52201223 0.37536448 1.4913802
0.52739388 0.37536454 1.4913802
0.53277552 0.37536457 1.4913805
0.53815711 0.3753646 1.4913807
0.54353881 0.37536466 1.4913807
0.54764533 0.37541291 1.4915725
0.55170935 0.37677681 1.4916492
0.40239567 0.38220894 1.4918374
0.5580647 0.38324925 1.4906505
0.40345216 0.38819444 1.4924307
0.53364378 0.38847116 1.4900482
0.53777617 0.38854322 1.4903246
0.54328835 0.38863939 1.4906933
0.54739618 0.38869163 1.4908938
0.55143094 0.3886916 1.4908936
0.55681074 0.38869154 1.4908936
0.56157219 0.38784665 1.492825
0.40314487 0.39235839 1.494615
0.40585873 0.39330241 1.4913779
0.43159774 0.39395058 1.4904366
0.55250269 0.39272162 1.4925772
0.55751824 0.39322597 1.4927878
0.56290483 0.39322597 1.4927876
0.56718487 0.39473912 1.4934199
0.4069916 0.39801779 1.4922429
0.41006666 0.39931083 1.4903697
0.42898664 0.39940134 1.4907075
0.43216339 0.39715949 1.4923899
0.55418217 0.39777067 1.4946865
0.5582273 0.39777064 1.4946864
0.56362069 0.39777061 1.4946862
0.56766587 0.39777064 1.4946864
0.57036263 0.39777064 1.4946864
0.40696436 0.40157411 1.4937894
0.41202298 0.40305671 1.490963
0.41676512 0.40466565 1.4902847
0.42217046 0.40469185 1.490381
0.42782855 0.40226561 1.4913552
0.43273044 0.40037677 1.4943482
0.40842855 0.40573266 1.4942142
0.41165748 0.40716878 1.4928894
0.41709983 0.40768158 1.4914813
0.42255384 0.40775073 1.4917344
0.42787632 0.40632495 1.4930878
0.41296852 0.41207024 1.4943843
0.41761231 0.41222447 1.4933139
0.42313033 0.41235021 1.4937693
0.42748901 0.41130647 1.4948757
0.3842175 0.45836431 1.4944166
0.3879326 0.45797452 1.4931494
0.39267966 0.45820042 1.4924225
0.39733079 0.45794082 1.4930398
0.40271831 0.45794082 1.4930398
0.40737823 0.45768228 1.4936608
0.41214985 0.45794261 1.4930457
0.41753748 0.45794261 1.4930458
0.42292538 0.45794302 1.493047
0.42768463 0.45820078 1.4924237
0.43234971 0.45794058 1.4930391
0.43773755 0.45794094 1.4930402
0.44241127 0.45768157 1.4936584
0.44716805 0.45794153 1.4930421
0.45272878 0.45811671 1.4936116
0.3843523 0.46257135 1.4949408
0.38764608 0.46302333 1.4920499
0.450872 0.46298581 1.4919279
0.38912699 0.46722168 1.4925637
0.39131293 0.46661714 1.4906325
0.44799 0.46682441 1.4912946
0.40255454 0.37283394 1.4974345
0.40795794 0.37283391 1.4974345
0.41272423 0.37311617 1.4967598
0.41741207 0.37283391 1.4974345
0.4228155 0.37283391 1.4974345
0.42751193 0.37255165 1.4981092
0.43227333 0.37283391 1.4974345
0.43767673 0.37283391 1.4974344
0.44242954 0.37311617 1.4967595
0.44713086 0.37283388 1.4974344
0.45253429 0.37283391 1.4974344
0.45724413 0.37255165 1.4981093
0.46199214 0.37283394 1.4974346
0.4673956 0.37283397 1.4974347
0.47279906 0.37283403 1.4974349
0.47753608 0.37311628 1.49676
0.48225328 0.37283403 1.4974351
0.48765671 0.37283409 1.4974351
0.49238241 0.37255183 1.4981102
0.4971146 0.37283415 1.4974353
0.50251806 0.37283415 1.4974355
0.50792152 0.37283421 1.4974356
0.5126428 0.37311649 1.4967608
0.51737571 0.37283424 1.4974358
0.52277923 0.37283427 1.4974359
0.52752072 0.37255201 1.4981108
0.53223711 0.37283432 1.497436
0.53764057 0.37283432 1.497436
0.54234838 0.37311664 1.4967614
0.5471518 0.37287316 1.4975919
0.55270618 0.37432671 1.4979951
0.40063375 0.37770212 1.4953073
0.55504799 0.37678441 1.4970217
0.40094084 0.3833915 1.4964535
0.40117139 0.38766393 1.497314
0.40141681 0.39195612 1.49823
0.56654304 0.39076596 1.4988503
0.40289858 0.39659718 1.4970449
0.43695098 0.39636731 1.4995798
0.40395913 0.40260848 1.4976337
0.40604064 0.40334269 1.4953483
0.43329901 0.40360248 1.4963115
0.55735159 0.40080732 1.4959551
0.56163853 0.40232819 1.4965904
0.56703883 0.40232813 1.4965903
0.57255042 0.40240586 1.4968802
0.40442586 0.40848404 1.4993641
0.40719005 0.4080905 1.4962696
0.43215472 0.40784383 1.4970198
0.56370646 0.40689602 1.4984986
0.56800342 0.40842205 1.499136
0.57288069 0.40791336 1.4989234
0.57665008 0.40893078 1.4993486
0.58042175 0.40994823 1.4997737
0.40836239 0.41286531 1.4972686
0.41157699 0.41427585 1.4958589
0.42792484 0.41442561 1.4963996
0.43092719 0.41201502 1.4974508
0.4083209 0.41643327 1.4987682
0.41309074 0.41714108 1.4964557
0.41831487 0.41831553 1.495826
0.42241865 0.41837049 1.4960225
0.42677283 0.41731822 1.4970913
0.43141502 0.41518626 1.4991461
0.40984705 0.4206681 1.4994036
0.41356203 0.42167202 1.498163
0.41751325 0.42291796 1.4977908
0.42159671 0.42294782 1.4978964
0.42679524 0.42138687 1.498752
0.41656765 0.42603528 1.4992511
0.42198157 0.42603886 1.4992638
0.37986162 0.45691529 1.4985059
0.38221049 0.45649031 1.4971163
0.38665375 0.4556025 1.4986339
0.39206228 0.45560342 1.498637
0.39747024 0.45560366 1.4986378
0.40287739 0.45560294 1.4986354
0.40828535 0.45560318 1.4986362
0.41234252 0.45560467 1.4986411
0.41639891 0.45560533 1.4986432
0.42180663 0.45560521 1.4986429
0.42721307 0.45560378 1.4986382
0.43261999 0.45560291 1.4986353
0.43802738 0.45560256 1.4986341
0.44343603 0.45560348 1.4986372
0.44749147 0.45560309 1.4986359
0.45154667 0.45560244 1.4986339
0.45725468 0.4563534 1.4981421
0.38148308 0.46165404 1.497799
0.45462364 0.46271783 1.4954141
0.45854554 0.46125081 1.499416
0.38461122 0.46558198 1.4959478
0.40283653 0.37028408 1.5035288
0.40690559 0.37028411 1.503529
0.41233104 0.37028414 1.5035291
0.41775644 0.37028414 1.5035291
0.42318189 0.37028417 1.5035292
0.42860734 0.3702842 1.5035293
0.4326764 0.3702842 1.5035293
0.43674549 0.37028423 1.5035294
0.44217092 0.37028426 1.5035295
0.44759637 0.37028426 1.5035295
0.45302179 0.37028429 1.5035297
0.45844722 0.37028432 1.5035298
0.46251631 0.37028432 1.5035298
0.4665854 0.37028435 1.5035299
0.47201082 0.37028438 1.50353
0.47743624 0.37028438 1.50353
0.4828617 0.37028441 1.5035301
0.48828715 0.37028444 1.5035303
0.49235621 0.37028444 1.5035303
0.4964253 0.37028444 1.5035303
0.50185072 0.37028447 1.5035304
0.50727618 0.3702845 1.5035305
0.51270163 0.37028453 1.5035306
0.51812708 0.37028453 1.5035306
0.52355242 0.3702845 1.5035305
0.52762139 0.37028444 1.5035303
0.53169036 0.37028438 1.50353
0.53711569 0.37028432 1.5035298
0.54254103 0.37028426 1.5035295
0.54815865 0.37041384 1.5040557
0.55110341 0.37236717 1.500991
0.40043691 0.38414794 1.5047053
0.5590924 0.38039944 1.5006275
0.56335789 0.38416934 1.5047891
0.40028256 0.38807043 1.5041254
0.40035695 0.39357135 1.5044048
0.57082212 0.39455879 1.5029969
0.40118665 0.39847589 1.5024376
0.40210986 0.40210986 1.5008167
0.57829368 0.40494102 1.501274
0.40241113 0.40647623 1.5019412
0.40347829 0.41251564 1.5025557
0.4346157 0.41024473 1.5008585
0.43536451 0.4136641 1.5034444
0.57143712 0.4130055 1.5010507
0.57685363 0.41300553 1.5010508
0.58227015 0.41300556 1.5010509
0.40316877 0.41674346 1.5047688
0.40590629 0.4176462 1.5015076
0.43196711 0.41842583 1.5010645
0.573524 0.41760194 1.5029709
0.5776248 0.41762605 1.5030575
0.58292997 0.4161846 1.502751
0.40674296 0.42301419 1.5029317
0.4101499 0.42368621 1.5005116
0.42928538 0.42386851 1.5011573
0.43253762 0.42169026 1.503047
0.40821275 0.42719939 1.5033478
0.41178116 0.42803681 1.5015261
0.41690418 0.42908663 1.5004623
0.4223671 0.42913556 1.5006334
0.42769459 0.4276942 1.5019097
0.40849593 0.43020999 1.5043906
0.41225246 0.43259442 1.5032444
0.41724128 0.43214291 1.5016754
0.42275339 0.43223792 1.5020056
0.42731091 0.43273708 1.5037402
0.43026122 0.43026122 1.5045698
0.41256732 0.43563905 1.5043924
0.41776139 0.43675125 1.5035472
0.4227767 0.43634209 1.503696
0.37689304 0.45417017 1.5028415
0.38220176 0.45403403 1.5023909
0.38762242 0.45403326 1.5023885
0.39304405 0.45403364 1.5023897
0.39846623 0.45403466 1.502393
0.4025315 0.45403385 1.5023904
0.40659761 0.45403397 1.5023909
0.41201991 0.4540351 1.5023946
0.41744232 0.4540363 1.5023985
0.42286366 0.4540363 1.5023985
0.42828277 0.45403394 1.5023906
0.43234882 0.45403403 1.502391
0.4364143 0.45403349 1.5023892
0.4418363 0.45403421 1.5023916
0.4472568 0.45403343 1.502389
0.45267802 0.45403337 1.5023887
0.45810038 0.45403439 1.5023922
0.46216711 0.45403513 1.5023947
0.37716666 0.45756975 1.5021344
0.46270716 0.45727953 1.5041503
0.3771137 0.46121848 1.5037241
0.38031465 0.4642275 1.5002931
0.40393582 0.36857444 1.5076318
0.40801692 0.36857527 1.5076354
0.41345716 0.36857533 1.5076354
0.41753736 0.36857533 1.5076355
0.42161757 0.36857536 1.5076356
0.42705783 0.36857539 1.5076357
0.4324981 0.36857542 1.5076358
0.43793836 0.36857545 1.507636
0.44337863 0.36857548 1.5076361
0.44745883 0.36857551 1.5076362
0.45153904 0.36857551 1.5076363
0.45697927 0.36857557 1.5076363
0.46241957 0.36857557 1.5076365
0.4678598 0.36857563 1.5076365
0.4733001 0.36857563 1.5076368
0.47738028 0.36857566 1.5076368
0.48146048 0.36857569 1.5076369
0.48690075 0.36857572 1.507637
0.49234101 0.36857575 1.5076371
0.49778122 0.36857575 1.507637
0.50322139 0.36857569 1.5076368
0.50730151 0.36857563 1.5076367
0.51138163 0.36857557 1.5076365
0.51682174 0.36857551 1.5076363
0.52226192 0.36857545 1.5076361
0.52770209 0.36857539 1.5076358
0.53314221 0.36857533 1.5076356
0.53858232 0.36857527 1.5076354
0.54266244 0.36857525 1.5076351
0.5468905 0.3686747 1.508042
0.55368072 0.37138781 1.5080105
0.55593121 0.37379241 1.5067359
0.40115711 0.38211915 1.5074116
0.56764656 0.38795987 1.5089725
0.57512784 0.39837462 1.507174
0.40063614 0.4019945 1.5054541
0.40094459 0.4077405 1.506613
0.58260256 0.40877244 1.5054089
0.40125364 0.41349554 1.5077744
0.58693367 0.41262391 1.5095626
0.4024604 0.41877639 1.507205
0.43647346 0.41743723 1.5072739
0.40267834 0.42172399 1.508021
0.43310943 0.42496318 1.5050341
0.57761133 0.42267558 1.506559
0.40398872 0.42711306 1.5078293
0.40608832 0.4278188 1.5055275
0.43368253 0.4282445 1.5070256
0.4043411 0.43156946 1.5091444
0.40724671 0.43261537 1.5064656
0.43256372 0.43256086 1.5078597
0.40810686 0.43803608 1.5079709
0.41288263 0.43868828 1.505542
0.42698124 0.43784812 1.5057656
0.43150479 0.4383117 1.5089183
0.40963274 0.44229451 1.5085772
0.41335657 0.44327149 1.5072701
0.4184739 0.44293085 1.5061115
0.4226177 0.44300184 1.5063527
0.42661738 0.44293833 1.5076798
0.40992931 0.44533849 1.5096694
0.41258922 0.44799292 1.5094358
0.41636795 0.44766378 1.5083268
0.42179024 0.44764173 1.5082524
0.42625245 0.44804174 1.5096002
0.37414676 0.45169556 1.5081644
0.37759104 0.45193014 1.5074338
0.38228309 0.4516657 1.5080651
0.38772443 0.45166519 1.5080633
0.39242411 0.45140052 1.5086937
0.39724824 0.45166412 1.5080597
0.40269053 0.45166472 1.5080616
0.40750709 0.45192876 1.5074292
0.41221237 0.45166522 1.5080632
0.41759875 0.45160538 1.507863
0.42230776 0.45133778 1.5084834
0.42717853 0.45166481 1.5080619
0.43261999 0.45166445 1.5080607
0.43806154 0.45166424 1.50806
0.4428632 0.45192823 1.5074273
0.44758344 0.45166478 1.5080618
0.45230958 0.45140147 1.5086969
0.45710924 0.45166576 1.5080651
0.46255136 0.45166609 1.5080663
0.37401175 0.45697474 1.5076201
0.46400139 0.46127996 1.5083574
0.41185758 0.36685327 1.5117483
0.41731349 0.36685401 1.5117514
0.42276859 0.36685401 1.5117514
0.42822373 0.36685407 1.5117517
0.43231508 0.3668541 1.5117518
0.4364064 0.36685413 1.5117519
0.44186151 0.36685413 1.5117519
0.44731662 0.36685419 1.5117521
0.45277175 0.36685419 1.5117521
0.45822686 0.36685425 1.5117524
0.46231818 0.36685425 1.5117524
0.46640956 0.36685428 1.5117525
0.47186464 0.36685431 1.5117526
0.47731978 0.36685434 1.5117527
0.48141113 0.36685437 1.5117528
0.56016076 0.37752926 1.5108113
0.57197309 0.39178106 1.513216
0.57945824 0.40221217 1.5113761
0.4004418 0.40864196 1.5149949
0.40028417 0.41257945 1.5143983
0.40035647 0.41811985 1.514672
0.40192166 0.42372081 1.5102845
0.4022249 0.42813128 1.5114241
0.40355241 0.43354625 1.5112936
0.40350485 0.43716908 1.5128189
0.43512982 0.43512982 1.5120548
0.40595439 0.44232285 1.5117754
0.43234175 0.44325259 1.5118451
0.37158054 0.44944915 1.5143423
0.37690455 0.44928116 1.5137763
0.38236651 0.44928065 1.5137745
0.38782835 0.44928002 1.5137724
0.39329123 0.44928062 1.5137744
0.39738747 0.44928002 1.5137724
0.4014833 0.44927895 1.5137688
0.40672418 0.44767067 1.5129478
0.41023433 0.44839567 1.5107927
0.42934328 0.447063 1.5108923
0.4329043 0.44792616 1.5138123
0.43698868 0.44927901 1.5137689
0.44245237 0.44928032 1.5137734
0.44791472 0.44928032 1.5137734
0.45337686 0.44928008 1.5137726
0.45747435 0.4492808 1.513775
0.46157166 0.44928128 1.5137767
0.46566799 0.44928086 1.5137752
0.37202436 0.4524256 1.5105953
0.37230176 0.45685381 1.5117216
0.57630938 0.39561382 1.5174451
0.40122804 0.40670556 1.5179695
0.58381277 0.40607119 1.5156018
0.58820021 0.40995771 1.5198728
0.40046421 0.42233256 1.5150796
0.40063795 0.42661816 1.5157369
0.40094835 0.43242234 1.5169113
0.40125924 0.43823561 1.5180874
0.43600303 0.43873659 1.5150892
0.40271631 0.44285226 1.5167036
0.3723805 0.447678 1.5176002
0.37785655 0.44767788 1.5175998
0.38333312 0.44767833 1.5176013
0.38744062 0.44767874 1.5176027
0.3915478 0.4476788 1.5176029
0.39702398 0.44767874 1.5176027
0.40217564 0.44691229 1.5181031
0.43809605 0.4476794 1.5176048
0.44357136 0.44767851 1.517602
0.44767895 0.44767895 1.5176034
0.45178646 0.44767931 1.5176046
0.4572621 0.44767877 1.5176028
0.46273744 0.44767791 1.5175999
0.46684465 0.447678 1.5176002
0.37050903 0.45254055 1.5155451
0.37066454 0.455466 1.5161812
0.40028566 0.43742543 1.5248125
0.40032011 0.44159022 1.5249436
0.36915052 0.44737178 1.5212148
0.37332702 0.44607091 1.5214578
0.37744418 0.44607037 1.521456
0.38156128 0.44606984 1.5214541
0.38705075 0.44606912 1.5214517
0.39254045 0.4460687 1.5214503
0.39803058 0.44606873 1.5214504
0.43783367 0.44606876 1.5214505
0.4419516 0.44606915 1.5214518
0.44744137 0.44606885 1.5214508
0.45293182 0.44606924 1.5214521
0.45842266 0.44606996 1.5214546
0.46254078 0.44607049 1.5214564
0.46665889 0.446071 1.5214581
0.36926317 0.45299962 1.5216792
0.40087318 0.43255585 1.5270505
0.37199837 0.44364068 1.5272727
0.37750942 0.44364071 1.5272728
0.38302052 0.44364068 1.5272727
0.38790682 0.44391164 1.5266243
0.39266315 0.44364071 1.5272728
0.39742562 0.4433701 1.5279222
0.40039229 0.44442168 1.5252186
0.43894812 0.4444522 1.5253233
0.44299403 0.44391134 1.5266236
0.44777411 0.44364083 1.5272732
0.45255959 0.44336975 1.5279211
0.45742011 0.44364065 1.5272726
0.46293119 0.44364065 1.5272726
0.46778354 0.44391152 1.5266241
0.36848986 0.45129657 1.5298669
0.36897755 0.44221917 1.5318917
0.37342504 0.44119477 1.5331302
0.37757424 0.4411948 1.5331303
0.38172343 0.44119483 1.5331304
0.38725573 0.44119492 1.5331308
0.39278817 0.44119516 1.5331316
0.39832002 0.44119477 1.5331302
0.44396073 0.44119462 1.5331297
0.44811004 0.44119477 1.5331302
0.45225927 0.44119483 1.5331304
0.45640838 0.44119477 1.5331302
0.46194053 0.44119471 1.5331299
0.46747267 0.44119465 1.5331297
0.36856771 0.44725055 1.53019
0.37160817 0.43955147 1.5370564
0.37715483 0.43955177 1.5370576
0.38270152 0.43955213 1.5370588
0.38824773 0.43955192 1.5370581
0.39240783 0.43955222 1.5370592
0.39656782 0.43955243 1.5370599
0.40072769 0.43955252 1.5370603
0.44648513 0.43955213 1.5370588
0.45203102 0.43955165 1.5370572
0.45757729 0.4395515 1.5370567
0.46312353 0.43955135 1.5370562
0.46728325 0.43955129 1.537056
0.37334785 0.4373478 1.5423306
0.37798437 0.4373481 1.5423316
0.38202271 0.43679559 1.5436572
0.38696361 0.43707222 1.5429957
0.39253116 0.43707192 1.5429947
0.39746389 0.43734869 1.5423336
0.40151778 0.43679497 1.5436548
0.44755292 0.43734884 1.5423342
0.4523837 0.43707219 1.5429956
0.45722035 0.43679547 1.5436567
0.46212843 0.43707147 1.5429931
0.46570364 0.43790042 1.5410055
0.37728387 0.43457511 1.548973
0.38287294 0.43457478 1.5489718
0.38846153 0.43457389 1.5489686
0.39265472 0.43457514 1.5489731
0.39684594 0.43457428 1.54897
0.40243503 0.43457395 1.5489688
0.40662795 0.43457487 1.5489721
0.44854733 0.43457392 1.5489687
0.45274001 0.43457451 1.5489708
0.45833001 0.43457508 1.5489728
0.46252191 0.43457499 1.5489725
0.37966108 0.43289772 1.5529811
0.38246244 0.43289703 1.5529788
0.38666624 0.43289807 1.5529824
0.39227057 0.43289858 1.5529842
0.39787316 0.43289724 1.5529795
0.40347847 0.43289876 1.552985
0.40767995 0.43289727 1.5529796
0.44971055 0.43289894 1.5529855
0.45251122 0.43289775 1.5529813
0.45671368 0.4328973 1.5529797
0.46091741 0.4328981 1.5529826
0.38205183 0.4312129 1.5570148
0.38767129 0.43121409 1.5570192
0.39328817 0.43121237 1.557013
0.39750287 0.43121338 1.5570165
0.40171704 0.43121374 1.5570178
0.40733436 0.4312126 1.5570138
0.45368773 0.43121403 1.5570189
0.45649567 0.43121284 1.5570146
0.38727146 0.42951927 1.5610693
0.39149588 0.42951885 1.5610678
0.39713022 0.42952031 1.5610731
0.40276253 0.42951947 1.56107
0.40839469 0.42951858 1.5610669
0.39251924 0.4278177 1.5651484
0.39804205 0.42724672 1.5665121
0.402161 0.42667651 1.5678786
0.40716937 0.4269605 1.5671912
0.41141072 0.42696047 1.5671912
0.41303095 0.42438576 1.5733632
