# .PCD v0.7 - Point Cloud Data file format
VERSION 0.7
FIELDS x y z
SIZE 4 4 4
TYPE F F F
COUNT 1 1 1
WIDTH 772
HEIGHT 1
VIEWPOINT 0 0 0 1 0 0 0
POINTS 772
DATA ascii
1.5565231 1.0742202 2.7001884
1.5550897 1.0717181 2.706172
1.5599723 1.0717181 2.706172
1.5585439 1.0692052 2.712183
1.5634373 1.0692052 2.712183
1.5571114 1.0666826 2.7182245
1.5620157 1.0666826 2.7182245
1.5669198 1.0666825 2.7182243
1.5556725 1.0641488 2.7242932
1.5605878 1.0641488 2.7242932
1.565503 1.0641488 2.7242932
1.5704182 1.0641488 2.7242932
1.5591522 1.061603 2.730387
1.5640786 1.061603 2.730387
1.5690048 1.061603 2.730387
1.573931 1.061603 2.730387
1.5577089 1.0590445 2.7365053
1.562646 1.0590445 2.7365053
1.5675833 1.0590445 2.7365053
1.5725206 1.0590445 2.7365053
1.5774579 1.0590445 2.7365053
1.5562605 1.0564756 2.7426538
1.5612087 1.0564756 2.7426538
1.5661571 1.0564756 2.7426538
1.5711055 1.0564756 2.7426538
1.5760539 1.0564756 2.7426538
1.5810022 1.0564756 2.7426538
1.5548024 1.0538932 2.7488246
1.5597619 1.0538932 2.7488246
1.5647213 1.0538932 2.7488246
1.5696808 1.0538932 2.7488246
1.5746404 1.0538932 2.7488246
1.579603 1.0538952 2.7488301
1.5845624 1.0538951 2.7488298
1.5583113 1.0513009 2.7550282
1.563282 1.0513009 2.7550282
1.5682527 1.0513009 2.7550282
1.5732232 1.0513009 2.755028
1.5781939 1.0513009 2.755028
1.5831646 1.0513009 2.755028
1.5881354 1.0513009 2.755028
1.5568569 1.0486988 2.7612648
1.5618389 1.0486988 2.7612648
1.5668209 1.0486988 2.7612648
1.5718027 1.0486988 2.7612648
1.5767847 1.0486988 2.7612648
1.5817666 1.0486988 2.7612648
1.5867453 1.0486966 2.7612591
1.5917273 1.0486966 2.7612591
1.5553908 1.0460815 2.7675207
1.5603842 1.0460815 2.7675207
1.5653774 1.0460815 2.7675207
1.5703706 1.0460815 2.7675207
1.5753638 1.0460815 2.7675207
1.5803571 1.0460815 2.7675207
1.5853503 1.0460815 2.7675207
1.5903435 1.0460815 2.7675207
1.5953366 1.0460814 2.7675204
1.5589268 1.043455 2.7738123
1.5639315 1.043455 2.7738123
1.568936 1.043455 2.7738123
1.5739406 1.043455 2.7738123
1.5789452 1.043455 2.7738123
1.5839498 1.043455 2.7738123
1.5889542 1.043455 2.7738121
1.5939587 1.043455 2.7738121
1.5989634 1.043455 2.7738121
1.5574592 1.0408142 2.7801259
1.5624752 1.0408142 2.7801259
1.5674912 1.0408142 2.7801259
1.5725071 1.0408142 2.7801259
1.5775231 1.0408142 2.7801259
1.5825391 1.0408142 2.7801259
1.5875551 1.0408142 2.7801259
1.592571 1.0408142 2.7801259
1.597587 1.0408142 2.7801259
1.6026028 1.040814 2.7801256
1.5559888 1.0381638 2.7864752
1.5610162 1.0381638 2.7864752
1.5660436 1.0381638 2.7864752
1.571071 1.0381638 2.7864752
1.5760984 1.0381638 2.7864752
1.5811259 1.0381638 2.7864752
1.5861533 1.0381638 2.7864752
1.5911808 1.0381638 2.7864752
1.5962082 1.0381638 2.7864752
1.6012356 1.0381638 2.7864752
1.606263 1.0381638 2.7864752
1.5595467 1.0354986 2.7928467
1.5645856 1.0354986 2.7928467
1.5696245 1.0354986 2.7928467
1.5746633 1.0354986 2.7928464
1.5797023 1.0354986 2.7928464
1.5847411 1.0354986 2.7928464
1.5897801 1.0354986 2.7928464
1.5948189 1.0354986 2.7928464
1.5998579 1.0354986 2.7928464
1.6048968 1.0354986 2.7928464
1.6099358 1.0354986 2.7928464
1.5580724 1.0328227 2.7992511
1.5631227 1.0328226 2.7992508
1.5681733 1.0328226 2.7992508
1.5732237 1.0328226 2.7992508
1.5782743 1.0328226 2.7992508
1.5833247 1.0328226 2.7992508
1.5883752 1.0328226 2.7992508
1.5934256 1.0328226 2.7992508
1.5984762 1.0328226 2.7992508
1.6035266 1.0328226 2.7992508
1.6085771 1.0328226 2.7992508
1.6136276 1.0328226 2.7992508
1.5565934 1.0301358 2.8056884
1.5616554 1.0301358 2.8056884
1.5667175 1.0301358 2.8056884
1.5717796 1.0301358 2.8056884
1.5768417 1.0301358 2.8056884
1.5819037 1.0301356 2.8056881
1.5869658 1.0301356 2.8056881
1.5920279 1.0301356 2.8056881
1.59709 1.0301356 2.8056881
1.6021521 1.0301356 2.8056881
1.6072142 1.0301356 2.8056881
1.6122762 1.0301356 2.8056881
1.6173383 1.0301356 2.8056881
1.5551047 1.0274346 2.8121505
1.5601785 1.0274346 2.8121505
1.5652523 1.0274346 2.8121505
1.5703261 1.0274346 2.8121505
1.5753998 1.0274346 2.8121505
1.5804734 1.0274346 2.8121502
1.5855472 1.0274346 2.8121502
1.5906209 1.0274346 2.8121502
1.5956947 1.0274346 2.8121502
1.6007684 1.0274346 2.8121502
1.6058421 1.0274346 2.8121502
1.6109159 1.0274346 2.8121502
1.6159897 1.0274346 2.8121502
1.6210635 1.0274346 2.8121502
1.5586951 1.0247213 2.8186429
1.5637805 1.0247213 2.8186429
1.568866 1.0247213 2.8186429
1.5739512 1.0247211 2.8186426
1.5790367 1.0247211 2.8186426
1.5841222 1.0247211 2.8186426
1.5892076 1.0247211 2.8186426
1.5942931 1.0247211 2.8186426
1.5993786 1.0247211 2.8186426
1.6044641 1.0247211 2.8186426
1.6095495 1.0247211 2.8186426
1.614635 1.0247211 2.8186426
1.6197205 1.0247211 2.8186426
1.6248059 1.0247211 2.8186426
1.5572063 1.0219963 2.8251681
1.5623034 1.0219963 2.8251681
1.5674007 1.0219963 2.8251681
1.572498 1.0219963 2.8251681
1.5775952 1.0219963 2.8251681
1.5826924 1.0219963 2.8251681
1.5877897 1.0219963 2.8251681
1.5928869 1.0219963 2.8251681
1.597984 1.0219961 2.8251679
1.6030812 1.0219961 2.8251679
1.6081785 1.0219961 2.8251679
1.6132758 1.0219961 2.8251679
1.6183729 1.0219961 2.8251679
1.6234702 1.0219961 2.8251679
1.6285675 1.0219961 2.8251679
1.5557106 1.0192586 2.8317237
1.5608196 1.0192586 2.8317237
1.5659287 1.0192586 2.8317237
1.5710378 1.0192586 2.8317237
1.5761468 1.0192586 2.8317237
1.5812559 1.0192586 2.8317237
1.586365 1.0192586 2.8317237
1.5914741 1.0192586 2.8317237
1.596583 1.0192586 2.8317237
1.6016921 1.0192586 2.8317237
1.606801 1.0192585 2.8317235
1.6119101 1.0192585 2.8317235
1.6170192 1.0192585 2.8317235
1.6221282 1.0192585 2.8317235
1.6272373 1.0192585 2.8317235
1.6323464 1.0192585 2.8317235
1.5593272 1.0165073 2.8383069
1.5644482 1.0165073 2.8383069
1.5695691 1.0165073 2.8383069
1.57469 1.0165071 2.8383067
1.5798109 1.0165071 2.8383067
1.5849319 1.0165071 2.8383067
1.5900528 1.0165071 2.8383067
1.5951737 1.0165071 2.8383067
1.6002947 1.0165071 2.8383067
1.6054156 1.0165071 2.8383067
1.6105366 1.0165071 2.8383067
1.6156574 1.0165071 2.8383067
1.6207784 1.0165071 2.8383067
1.6258994 1.0165071 2.8383067
1.6310203 1.0165071 2.8383067
1.6361413 1.0165071 2.8383067
1.5578276 1.0137428 2.8449202
1.5629605 1.0137428 2.8449202
1.5680934 1.0137428 2.8449202
1.5732262 1.0137428 2.8449202
1.5783591 1.0137428 2.8449202
1.583492 1.0137428 2.8449202
1.5886248 1.0137428 2.8449202
1.5937577 1.0137428 2.8449202
1.5988905 1.0137428 2.8449199
1.6040233 1.0137428 2.8449199
1.6091563 1.0137428 2.8449199
1.6142892 1.0137428 2.8449199
1.619422 1.0137428 2.8449199
1.6245549 1.0137428 2.8449199
1.6296878 1.0137428 2.8449199
1.6348206 1.0137428 2.8449199
1.6399535 1.0137428 2.8449199
1.5563222 1.0109663 2.8515666
1.5614671 1.0109663 2.8515666
1.5666119 1.0109663 2.8515666
1.5717568 1.0109663 2.8515666
1.5769017 1.0109663 2.8515666
1.5820465 1.0109663 2.8515666
1.5871912 1.0109662 2.8515663
1.5923362 1.0109662 2.8515663
1.597481 1.0109662 2.8515663
1.6026258 1.0109662 2.8515663
1.6077707 1.0109662 2.8515663
1.6129156 1.0109662 2.8515663
1.6180605 1.0109662 2.8515663
1.6232053 1.0109662 2.8515663
1.6283503 1.0109662 2.8515663
1.6334951 1.0109662 2.8515663
1.6386399 1.0109662 2.8515663
1.6437848 1.0109662 2.8515663
1.5548092 1.0081764 2.8582432
1.5599662 1.0081764 2.8582432
1.565123 1.0081764 2.858243
1.5702798 1.0081764 2.858243
1.5754368 1.0081764 2.858243
1.5805937 1.0081764 2.858243
1.5857506 1.0081764 2.858243
1.5909076 1.0081764 2.858243
1.5960644 1.0081764 2.858243
1.6012213 1.0081764 2.858243
1.6063783 1.0081764 2.858243
1.6115352 1.0081764 2.858243
1.6166921 1.0081764 2.858243
1.6218491 1.0081764 2.858243
1.6270059 1.0081764 2.858243
1.6321627 1.0081763 2.8582428
1.6373196 1.0081763 2.8582428
1.6424766 1.0081763 2.8582428
1.6476334 1.0081763 2.8582428
1.5584575 1.0053731 2.8649499
1.5636265 1.0053731 2.8649499
1.5687956 1.0053731 2.8649499
1.5739646 1.0053731 2.8649499
1.5791336 1.0053731 2.8649499
1.5843027 1.0053731 2.8649499
1.5894716 1.0053731 2.8649499
1.5946406 1.0053731 2.8649499
1.5998095 1.005373 2.8649497
1.6049786 1.005373 2.8649497
1.6101476 1.005373 2.8649497
1.6153165 1.005373 2.8649497
1.6204855 1.005373 2.8649497
1.6256546 1.005373 2.8649497
1.6308236 1.005373 2.8649497
1.6359926 1.005373 2.8649497
1.6411617 1.005373 2.8649497
1.6463306 1.005373 2.8649497
1.6514996 1.005373 2.8649497
1.5569443 1.0025581 2.8716927
1.5621253 1.002558 2.8716924
1.5673064 1.002558 2.8716924
1.5724876 1.002558 2.8716924
1.5776688 1.002558 2.8716924
1.58285 1.002558 2.8716924
1.5880312 1.002558 2.8716924
1.5932124 1.002558 2.8716924
1.5983936 1.002558 2.8716924
1.6035748 1.002558 2.8716924
1.6087558 1.002558 2.8716924
1.613934 1.0025561 2.8716869
1.6191151 1.0025561 2.8716869
1.6242962 1.002556 2.8716867
1.6294774 1.002556 2.8716867
1.6346586 1.002556 2.8716867
1.6398396 1.002556 2.8716867
1.6450208 1.002556 2.8716867
1.650202 1.002556 2.8716867
1.6553832 1.002556 2.8716867
1.5554212 0.9997282 2.8784626
1.5606147 0.9997282 2.8784626
1.5658081 0.9997282 2.8784626
1.5710014 0.9997282 2.8784626
1.5761949 0.9997282 2.8784626
1.5813882 0.9997282 2.8784626
1.5865816 0.9997282 2.8784626
1.5917751 0.9997282 2.8784626
1.5969684 0.9997282 2.8784626
1.6021618 0.9997282 2.8784626
1.6073552 0.9997282 2.8784626
1.6125486 0.9997282 2.8784626
1.6177418 0.99972808 2.8784623
1.6229353 0.99972808 2.8784623
1.6281286 0.99972808 2.8784623
1.633322 0.99972808 2.8784623
1.6385155 0.99972808 2.8784623
1.6437088 0.99972808 2.8784623
1.6489022 0.99972808 2.8784623
1.6540956 0.99972808 2.8784623
1.659289 0.99972808 2.8784623
1.5590975 0.99688542 2.8852658
1.564303 0.9968853 2.8852656
1.5695087 0.9968853 2.8852656
1.5747144 0.9968853 2.8852656
1.5799201 0.9968853 2.8852656
1.5851257 0.9968853 2.8852656
1.5903314 0.9968853 2.8852656
1.5955371 0.9968853 2.8852656
1.6007427 0.9968853 2.8852656
1.6059484 0.9968853 2.8852656
1.6111541 0.9968853 2.8852656
1.6163597 0.9968853 2.8852656
1.6215655 0.9968853 2.8852656
1.6267711 0.9968853 2.8852656
1.6319766 0.99688524 2.8852654
1.6371822 0.99688524 2.8852654
1.642388 0.99688524 2.8852654
1.6475936 0.99688524 2.8852654
1.6527992 0.99688524 2.8852654
1.6580049 0.99688524 2.8852654
1.6632106 0.99688524 2.8852654
1.5575705 0.99402738 2.8920963
1.5627885 0.99402738 2.8920963
1.5680064 0.99402738 2.8920963
1.5732244 0.99402738 2.8920963
1.5784425 0.99402738 2.8920963
1.5836605 0.99402738 2.8920963
1.5888784 0.99402738 2.8920963
1.5940994 0.99402928 2.8921018
1.5993174 0.99402928 2.8921018
1.6045353 0.99402916 2.8921015
1.6097533 0.99402916 2.8921015
1.6149713 0.99402916 2.8921015
1.6201893 0.99402916 2.8921015
1.6254073 0.99402916 2.8921015
1.6306254 0.99402916 2.8921015
1.6358433 0.99402916 2.8921015
1.6410613 0.99402916 2.8921015
1.6462793 0.99402916 2.8921015
1.6514974 0.99402916 2.8921015
1.6567153 0.99402916 2.8921015
1.6619333 0.99402916 2.8921015
1.6671513 0.99402916 2.8921015
1.556041 0.9911589 2.8989682
1.5612714 0.9911589 2.8989682
1.5665017 0.99115884 2.898968
1.571732 0.99115884 2.898968
1.5769625 0.99115884 2.898968
1.5821929 0.99115884 2.898968
1.5874232 0.99115884 2.898968
1.5926536 0.99115884 2.898968
1.5978841 0.99115884 2.898968
1.6031144 0.99115884 2.898968
1.6083448 0.99115884 2.898968
1.6135752 0.99115884 2.898968
1.6188055 0.99115884 2.898968
1.6240391 0.99116069 2.8989735
1.6292695 0.99116069 2.8989735
1.6344998 0.99116069 2.8989735
1.6397301 0.99116063 2.8989732
1.6449605 0.99116063 2.8989732
1.6501909 0.99116063 2.8989732
1.6554213 0.99116063 2.8989732
1.6606517 0.99116063 2.8989732
1.6658821 0.99116063 2.8989732
1.6711125 0.99116063 2.8989732
1.5597442 0.98827487 2.9058673
1.5649871 0.98827487 2.9058673
1.5702299 0.98827487 2.9058673
1.5754727 0.98827487 2.9058673
1.5807155 0.98827487 2.9058673
1.5859584 0.98827487 2.9058673
1.5912012 0.98827487 2.9058673
1.596444 0.98827487 2.9058673
1.6016868 0.98827487 2.9058673
1.6069298 0.98827487 2.9058673
1.6121726 0.98827487 2.9058673
1.6174154 0.98827487 2.9058673
1.6226583 0.98827487 2.9058673
1.627901 0.98827481 2.9058671
1.6331438 0.98827481 2.9058671
1.6383866 0.98827481 2.9058671
1.6436294 0.98827481 2.9058671
1.6488723 0.98827481 2.9058671
1.6541151 0.98827481 2.9058671
1.6593611 0.98827666 2.9058726
1.6646039 0.98827666 2.9058726
1.6698468 0.98827666 2.9058726
1.6750896 0.98827666 2.9058726
1.5582099 0.98537725 2.9127998
1.5634652 0.98537725 2.9127998
1.5687206 0.98537725 2.9127998
1.5739759 0.98537725 2.9127998
1.5792311 0.98537719 2.9127996
1.5844865 0.98537719 2.9127996
1.5897418 0.98537719 2.9127996
1.5949972 0.98537719 2.9127996
1.6002525 0.98537719 2.9127996
1.6055079 0.98537719 2.9127996
1.6107632 0.98537719 2.9127996
1.6160185 0.98537719 2.9127996
1.6212739 0.98537719 2.9127996
1.6265292 0.98537719 2.9127996
1.6317846 0.98537719 2.9127996
1.6370399 0.98537719 2.9127996
1.6422952 0.98537719 2.9127996
1.6475505 0.98537707 2.9127994
1.6528058 0.98537707 2.9127994
1.6580611 0.98537707 2.9127994
1.6633165 0.98537707 2.9127994
1.6685718 0.98537707 2.9127994
1.6738273 0.98537707 2.9127994
1.6790826 0.98537707 2.9127994
1.556671 0.98246753 2.9197707
1.5619389 0.98246747 2.9197705
1.5672067 0.98246747 2.9197705
1.5724747 0.98246747 2.9197705
1.5777427 0.98246747 2.9197705
1.5830106 0.98246747 2.9197705
1.5882785 0.98246747 2.9197705
1.5935464 0.98246747 2.9197705
1.5988144 0.98246747 2.9197705
1.6040822 0.98246747 2.9197705
1.6093502 0.98246747 2.9197705
1.6146181 0.98246747 2.9197705
1.619886 0.98246747 2.9197705
1.6251539 0.98246747 2.9197705
1.6304218 0.98246735 2.9197702
1.6356896 0.98246735 2.9197702
1.6409576 0.98246735 2.9197702
1.6462255 0.98246735 2.9197702
1.6514934 0.98246735 2.9197702
1.6567613 0.98246735 2.9197702
1.6620293 0.98246735 2.9197702
1.6672971 0.98246735 2.9197702
1.6725651 0.98246735 2.9197702
1.677833 0.98246735 2.9197702
1.6831009 0.98246735 2.9197702
1.5551231 0.97954273 2.9267716
1.5604036 0.97954273 2.9267716
1.5656842 0.97954273 2.9267716
1.5709647 0.97954273 2.9267716
1.5762453 0.97954273 2.9267716
1.5815258 0.97954273 2.9267716
1.5868064 0.97954273 2.9267716
1.5920869 0.97954273 2.9267716
1.5973675 0.97954273 2.9267716
1.602648 0.97954273 2.9267716
1.6079285 0.97954261 2.9267714
1.613209 0.97954261 2.9267714
1.6184896 0.97954261 2.9267714
1.6237701 0.97954261 2.9267714
1.6290507 0.97954261 2.9267714
1.6343312 0.97954261 2.9267714
1.6396117 0.97954261 2.9267714
1.6448923 0.97954261 2.9267714
1.6501728 0.97954261 2.9267714
1.6554534 0.97954261 2.9267714
1.6607339 0.97954261 2.9267714
1.6660146 0.97954261 2.9267714
1.671295 0.97954261 2.9267714
1.6765755 0.97954255 2.9267712
1.681856 0.97954255 2.9267712
1.6871367 0.97954255 2.9267712
1.5588577 0.97660184 2.9338002
1.5641509 0.97660184 2.9338002
1.5694441 0.97660184 2.9338002
1.5747373 0.97660184 2.9338002
1.5800306 0.97660184 2.9338002
1.5853238 0.97660184 2.9338002
1.5906171 0.97660184 2.9338002
1.5959103 0.97660184 2.9338002
1.6012034 0.97660172 2.9338
1.6064966 0.97660172 2.9338
1.6117898 0.97660172 2.9338
1.6170831 0.97660172 2.9338
1.6223763 0.97660172 2.9338
1.6276696 0.97660172 2.9338
1.6329628 0.97660172 2.9338
1.6382561 0.97660172 2.9338
1.6435493 0.97660172 2.9338
1.6488425 0.97660172 2.9338
1.6541357 0.97660172 2.9338
1.659429 0.97660172 2.9338
1.6647222 0.97660172 2.9338
1.6700153 0.97660166 2.9337997
1.6753086 0.97660166 2.9337997
1.6806018 0.97660166 2.9337997
1.685895 0.97660166 2.9337997
1.6911882 0.97660166 2.9337997
1.5573082 0.9736492 2.94087
1.5626142 0.9736492 2.94087
1.5679202 0.9736492 2.94087
1.5732261 0.9736492 2.94087
1.5785321 0.9736492 2.94087
1.5838381 0.9736492 2.94087
1.5891441 0.9736492 2.94087
1.5944501 0.9736492 2.94087
1.599756 0.97364914 2.9408698
1.605062 0.97364914 2.9408698
1.6103679 0.97364914 2.9408698
1.6156739 0.97364914 2.9408698
1.6209799 0.97364914 2.9408698
1.6262859 0.97364914 2.9408698
1.6315919 0.97364914 2.9408698
1.6368979 0.97364914 2.9408698
1.6422039 0.97364914 2.9408698
1.6475098 0.97364914 2.9408698
1.6528158 0.97364914 2.9408698
1.6581218 0.97364914 2.9408698
1.6634278 0.97364914 2.9408698
1.6687337 0.97364908 2.9408696
1.6740397 0.97364908 2.9408696
1.6793457 0.97364908 2.9408696
1.6846516 0.97364908 2.9408696
1.6899576 0.97364908 2.9408696
1.6952636 0.97364908 2.9408696
1.5557505 0.97068197 2.9479728
1.5610694 0.97068197 2.9479728
1.5663881 0.97068197 2.9479728
1.571707 0.97068197 2.9479728
1.5770258 0.97068197 2.9479728
1.5823445 0.97068197 2.9479728
1.5876634 0.97068197 2.9479728
1.5929822 0.97068197 2.9479728
1.5983009 0.97068197 2.9479728
1.6036198 0.97068197 2.9479728
1.6089386 0.97068197 2.9479728
1.6142575 0.97068197 2.9479728
1.6195762 0.97068197 2.9479728
1.6248949 0.97068191 2.9479725
1.6302137 0.97068191 2.9479725
1.6355325 0.97068191 2.9479725
1.6408513 0.97068191 2.9479725
1.6461701 0.97068191 2.9479725
1.6514889 0.97068191 2.9479725
1.6568077 0.97068191 2.9479725
1.6621265 0.97068191 2.9479725
1.6674453 0.97068191 2.9479725
1.6727642 0.97068191 2.9479725
1.6780829 0.97068191 2.9479725
1.6834017 0.97068191 2.9479725
1.6887206 0.97068191 2.9479725
1.6940392 0.97068179 2.9479723
1.699358 0.97068179 2.9479723
1.5595164 0.96769994 2.9551086
1.5648481 0.96769994 2.9551086
1.5701797 0.96769994 2.9551086
1.5755115 0.96769994 2.9551086
1.5808431 0.96769994 2.9551086
1.5861748 0.96769994 2.9551086
1.5915065 0.96769994 2.9551086
1.5968381 0.96769994 2.9551086
1.6021699 0.96769994 2.9551086
1.6075015 0.96769994 2.9551086
1.612833 0.96769983 2.9551084
1.6181648 0.96769983 2.9551084
1.6234964 0.96769983 2.9551084
1.628828 0.96769983 2.9551084
1.6341598 0.96769983 2.9551084
1.6394914 0.96769983 2.9551084
1.6448232 0.96769983 2.9551084
1.6501548 0.96769983 2.9551084
1.6554865 0.96769983 2.9551084
1.6608182 0.96769983 2.9551084
1.6661499 0.96769983 2.9551084
1.6714815 0.96769983 2.9551084
1.6768131 0.96769977 2.9551082
1.6821448 0.96769977 2.9551082
1.6874764 0.96769977 2.9551082
1.6928082 0.96769977 2.9551082
1.6981398 0.96769977 2.9551082
1.7034714 0.96769977 2.9551082
1.5579565 0.9647038 2.9622803
1.5633011 0.9647038 2.9622803
1.5686457 0.9647038 2.9622803
1.5739903 0.9647038 2.9622803
1.579335 0.9647038 2.9622803
1.5846796 0.9647038 2.9622803
1.5900241 0.96470368 2.96228
1.5953687 0.96470368 2.96228
1.6007134 0.96470368 2.96228
1.606058 0.96470368 2.96228
1.6114025 0.96470368 2.96228
1.6167471 0.96470368 2.96228
1.6220918 0.96470368 2.96228
1.6274364 0.96470368 2.96228
1.632781 0.96470368 2.96228
1.6381257 0.96470368 2.96228
1.6434703 0.96470368 2.96228
1.6488149 0.96470368 2.96228
1.6541595 0.96470368 2.96228
1.6595041 0.96470362 2.9622798
1.6648486 0.96470362 2.9622798
1.6701932 0.96470362 2.9622798
1.6755378 0.96470362 2.9622798
1.6808825 0.96470362 2.9622798
1.6862271 0.96470362 2.9622798
1.6915717 0.96470362 2.9622798
1.6969163 0.96470362 2.9622798
1.702261 0.96470362 2.9622798
1.7076056 0.96470362 2.9622798
1.5563909 0.96169418 2.9694903
1.5617485 0.96169418 2.9694903
1.5671061 0.96169418 2.9694903
1.5724638 0.96169418 2.9694903
1.5778214 0.96169418 2.9694903
1.583179 0.96169418 2.9694903
1.5885366 0.96169418 2.9694903
1.5938942 0.96169418 2.9694903
1.5992519 0.96169418 2.9694903
1.6046094 0.96169412 2.9694901
1.609967 0.96169412 2.9694901
1.6153246 0.96169412 2.9694901
1.6206822 0.96169412 2.9694901
1.6260399 0.96169412 2.9694901
1.6313975 0.96169412 2.9694901
1.6367551 0.96169412 2.9694901
1.6421127 0.96169412 2.9694901
1.6474704 0.96169412 2.9694901
1.652828 0.96169412 2.9694901
1.6581856 0.96169412 2.9694901
1.6635432 0.96169412 2.9694901
1.6689007 0.961694 2.9694898
1.6742584 0.961694 2.9694898
1.679616 0.961694 2.9694898
1.6849736 0.961694 2.9694898
1.6903312 0.961694 2.9694898
1.6956888 0.961694 2.9694898
1.7010465 0.961694 2.9694898
1.7064042 0.961694 2.9694898
1.7117618 0.961694 2.9694898
1.5548136 0.95866746 2.976728
1.5601844 0.95866746 2.976728
1.565555 0.95866746 2.976728
1.5709256 0.9586674 2.9767277
1.5762962 0.9586674 2.9767277
1.5816669 0.9586674 2.9767277
1.5870376 0.9586674 2.9767277
1.5924083 0.9586674 2.9767277
1.597779 0.9586674 2.9767277
1.6031497 0.9586674 2.9767277
1.6085204 0.9586674 2.9767277
1.613891 0.9586674 2.9767277
1.6192617 0.9586674 2.9767277
1.6246324 0.9586674 2.9767277
1.6300031 0.9586674 2.9767277
1.6353738 0.9586674 2.9767277
1.6407443 0.95866734 2.9767275
1.6461151 0.95866734 2.9767275
1.6514857 0.95866734 2.9767275
1.6568564 0.95866734 2.9767275
1.662227 0.95866734 2.9767275
1.6675978 0.95866734 2.9767275
1.6729685 0.95866734 2.9767275
1.6783391 0.95866734 2.9767275
1.6837099 0.95866734 2.9767275
1.6890805 0.95866734 2.9767275
1.6944512 0.95866734 2.9767275
1.6998218 0.95866734 2.9767275
1.7051924 0.95866722 2.9767272
1.7105631 0.95866722 2.9767272
1.7159338 0.95866722 2.9767272
1.5586154 0.9556278 2.9840066
1.5639993 0.9556278 2.9840066
1.569383 0.9556278 2.9840066
1.5747669 0.9556278 2.9840066
1.5801507 0.9556278 2.9840066
1.5855346 0.9556278 2.9840066
1.5909183 0.9556278 2.9840066
1.5963022 0.9556278 2.9840066
1.601686 0.9556278 2.9840066
1.6070697 0.95562768 2.9840064
1.6124535 0.95562768 2.9840064
1.6178373 0.95562768 2.9840064
1.6232212 0.95562768 2.9840064
1.628605 0.95562768 2.9840064
1.6339887 0.95562768 2.9840064
1.6393726 0.95562768 2.9840064
1.6447564 0.95562768 2.9840064
1.6501403 0.95562768 2.9840064
1.655524 0.95562768 2.9840064
1.6609079 0.95562768 2.9840064
1.6662917 0.95562768 2.9840064
1.6716753 0.95562762 2.9840062
1.6770592 0.95562762 2.9840062
1.682443 0.95562762 2.9840062
1.6878269 0.95562762 2.9840062
1.6932106 0.95562762 2.9840062
1.6985945 0.95562762 2.9840062
1.7039783 0.95562762 2.9840062
1.7093621 0.95562762 2.9840062
1.7147459 0.95562762 2.9840062
1.7201297 0.95562762 2.9840062
1.5570347 0.95257062 2.991313
1.5624317 0.95257062 2.991313
1.5678288 0.95257062 2.991313
1.5732257 0.95257062 2.991313
1.5786227 0.95257062 2.991313
1.5840197 0.95257062 2.991313
1.5894167 0.95257062 2.991313
1.5948136 0.95257056 2.9913127
1.6002105 0.95257056 2.9913127
1.6056076 0.95257056 2.9913127
1.6110046 0.95257056 2.9913127
1.6164016 0.95257056 2.9913127
1.6217986 0.95257056 2.9913127
1.6271956 0.95257056 2.9913127
1.6325926 0.95257056 2.9913127
1.6379896 0.95257056 2.9913127
1.6433866 0.95257056 2.9913127
1.6487836 0.95257056 2.9913127
1.6541821 0.95257139 2.9913154
1.659579 0.95257139 2.9913154
1.664976 0.95257139 2.9913154
1.6703731 0.95257139 2.9913154
1.67577 0.95257139 2.9913154
1.6811671 0.95257139 2.9913154
1.6865641 0.95257139 2.9913154
1.6919611 0.95257139 2.9913154
1.6973581 0.95257139 2.9913154
1.702755 0.95257133 2.9913151
1.7081519 0.95257133 2.9913151
1.713549 0.95257133 2.9913151
1.718946 0.95257133 2.9913151
1.7243429 0.95257133 2.9913151
1.5554519 0.94950193 2.998666
1.5608622 0.94950193 2.998666
1.5662724 0.94950193 2.998666
1.5716827 0.94950193 2.998666
1.5770929 0.94950193 2.998666
1.5825032 0.94950193 2.998666
1.5879135 0.94950193 2.998666
1.5933236 0.94950181 2.9986658
1.5987339 0.94950181 2.9986658
1.6041441 0.94950181 2.9986658
1.6095544 0.94950181 2.9986658
1.6149647 0.94950181 2.9986658
1.6203749 0.94950181 2.9986658
1.6257852 0.94950181 2.9986658
1.6311954 0.94950181 2.9986658
1.6366057 0.94950181 2.9986658
1.6420161 0.94950181 2.9986658
1.6474262 0.94950181 2.9986658
1.6528366 0.94950181 2.9986658
1.6582466 0.94950175 2.9986656
1.6636569 0.94950175 2.9986656
1.6690673 0.94950175 2.9986656
1.6744775 0.94950175 2.9986656
1.6798878 0.94950175 2.9986656
1.685298 0.94950175 2.9986656
1.6907083 0.94950175 2.9986656
1.6961186 0.94950175 2.9986656
1.7015288 0.94950175 2.9986656
1.7069391 0.94950175 2.9986656
1.7123493 0.94950175 2.9986656
1.7177596 0.94950175 2.9986656
1.7231699 0.94950175 2.9986656
1.7285784 0.94950086 2.9986627
