# .PCD v0.7 - Point Cloud Data file format
VERSION 0.7
FIELDS x y z
SIZE 4 4 4
TYPE F F F
COUNT 1 1 1
WIDTH 1502
HEIGHT 1
VIEWPOINT 0 0 0 1 0 0 0
POINTS 1502
DATA ascii
0.47908458 0.18940553 1.7643514
0.47934121 0.19269198 1.7652965
0.61635017 0.19907953 1.7654521
0.48242751 0.20220558 1.7649354
0.48269665 0.20550452 1.76592
0.61277187 0.20850161 1.7643205
0.48558745 0.21174797 1.7648467
0.48586017 0.21505286 1.7658379
0.4886044 0.2180417 1.7642429
0.60948241 0.2180133 1.7640131
0.48889256 0.22135526 1.7652833
0.6101687 0.22144502 1.7659992
0.49197289 0.22767678 1.764908
0.60668153 0.2277046 1.7651237
0.60316622 0.23394574 1.7641568
0.49507704 0.23400748 1.7646223
0.49539939 0.23734568 1.7657713
0.49824119 0.24036556 1.7645528
0.49856558 0.24370778 1.7657017
0.600555 0.24372657 1.7658378
0.5014345 0.24673761 1.7645868
0.59675592 0.24665911 1.7640254
0.50176489 0.25008598 1.7657495
0.59739864 0.25011089 1.7659254
0.50471747 0.25315481 1.7649338
0.59372288 0.2530883 1.7644702
0.50767243 0.25622341 1.7641369
0.50802326 0.25958556 1.7653561
0.5908221 0.25957951 1.7653149
0.51106185 0.26269534 1.76485
0.58733052 0.26262748 1.764394
0.51415521 0.26583257 1.7645384
0.51450437 0.26919886 1.7657366
0.5172779 0.2689845 1.7643304
0.58455378 0.26918146 1.7656223
0.51764292 0.27235982 1.7655755
0.52047557 0.27217531 1.7643794
0.5813055 0.27233768 1.7654319
0.52083814 0.27555045 1.7656084
0.52367491 0.27536705 1.7644333
0.57452822 0.27532795 1.7641827
0.57816213 0.27554283 1.7655596
0.52403969 0.27874452 1.7656624
0.52693802 0.27859262 1.7647002
0.57143378 0.27855408 1.764456
0.57502317 0.27875084 1.7657024
0.52732009 0.28198084 1.7659796
0.5302242 0.28183091 1.7650406
0.5331285 0.28168282 1.7641133
0.56499124 0.28169987 1.76422
0.56847417 0.28184855 1.7651511
0.53352606 0.28507811 1.7654288
0.53655589 0.28499556 1.7649176
0.5395875 0.28491491 1.7644182
0.55539161 0.28485703 1.7640597
0.55867797 0.28490984 1.7643868
0.56197053 0.28496522 1.7647297
0.56545281 0.28511566 1.7656614
0.53998405 0.28831008 1.765715
0.54306406 0.28825396 1.7653713
0.54621059 0.28823358 1.7652465
0.54935664 0.28821319 1.7651217
0.55256051 0.28822321 1.7651831
0.55583763 0.2882711 1.7654763
0.55913126 0.28832695 1.7658185
0.6012851 0.023923811 1.7679846
0.60445958 0.023923203 1.7679397
0.46698904 0.068534225 1.7667636
0.4667891 0.12267154 1.7660072
0.46692407 0.1258942 1.7665178
0.46706885 0.12912142 1.7670655
0.46721372 0.13235065 1.7676136
0.47016984 0.15141062 1.7667379
0.47041017 0.15467724 1.7676409
0.47323635 0.16730578 1.766286
0.47347131 0.1705772 1.7671629
0.47645819 0.18325315 1.766416
0.47671166 0.18653935 1.7673557
0.62042612 0.18979616 1.7679901
0.47960544 0.19598494 1.7662696
0.47987789 0.19928484 1.7672729
0.48296416 0.20880628 1.7668986
0.61367255 0.21199597 1.7669138
0.48323193 0.2121117 1.7678783
0.48614317 0.21836595 1.7668664
0.48643029 0.22168463 1.76791
0.48919079 0.22467721 1.7663602
0.48951298 0.22801419 1.7675235
0.49227813 0.2310043 1.766003
0.60739678 0.23116152 1.7672049
0.49258375 0.23433596 1.7670994
0.60387707 0.23740813 1.7662358
0.49572212 0.24068823 1.7669216
0.49888897 0.24705365 1.766847
0.60120249 0.24717875 1.7677417
0.4992055 0.25040019 1.7679679
0.50210023 0.25344107 1.7669296
0.59804285 0.25357017 1.7678295
0.50505006 0.25650808 1.7660969
0.59432173 0.25653028 1.7662499
0.50538307 0.25986576 1.7672615
0.50837463 0.26295239 1.7665769
0.59141415 0.26302785 1.7670839
0.50872642 0.26632386 1.7677994
0.51140893 0.26606008 1.7660486
0.58791441 0.26607507 1.7661481
0.51175648 0.26942942 1.7672487
0.58850384 0.26953155 1.7679187
0.51485395 0.27256975 1.7669363
0.5851419 0.27264106 1.7673986
0.51800853 0.27573991 1.7668225
0.58189148 0.27580062 1.7672114
0.52120119 0.27893031 1.7668391
0.57867628 0.27897617 1.7671298
0.5719372 0.28198573 1.7660104
0.52441287 0.28213093 1.7669197
0.57551891 0.28217962 1.7672247
0.52770275 0.28537399 1.7672611
0.53060877 0.28522214 1.7663207
0.56893885 0.28526625 1.7665939
0.57242852 0.28541702 1.7675276
0.53098869 0.28861549 1.7675855
0.53392953 0.28848132 1.7667639
0.53695035 0.28839174 1.7662152
0.56242979 0.28838468 1.7661719
0.56591523 0.28853706 1.7671051
0.53734541 0.29179293 1.7675147
0.54038125 0.29171023 1.7670138
0.54350102 0.29167357 1.7667917
0.54664999 0.29165292 1.7666667
0.54979855 0.29163226 1.7665416
0.5529958 0.29163757 1.7665737
0.55628896 0.29169306 1.7669098
0.55958539 0.29174966 1.7672526
0.56288975 0.29180971 1.7676164
0.55024111 0.29505685 1.7679636
0.49657518 0.023950571 1.7699622
0.49973547 0.023948984 1.7698449
0.50289536 0.023947397 1.7697276
0.50605476 0.023945808 1.7696103
0.50921381 0.023944221 1.769493
0.51237237 0.023942634 1.7693757
0.51553059 0.023941049 1.7692585
0.51868832 0.023939462 1.7691412
0.52186644 0.023938827 1.7690943
0.52504539 0.02393824 1.769051
0.52822417 0.023937652 1.7690074
0.53140259 0.023937054 1.7689632
0.53458089 0.023936456 1.7689191
0.53775901 0.02393586 1.768875
0.54093695 0.023935262 1.7688309
0.54411477 0.023934666 1.7687868
0.54729235 0.02393407 1.7687427
0.55046982 0.023933468 1.7686983
0.55364698 0.023932867 1.7686539
0.55682409 0.023932267 1.7686095
0.56000102 0.023931667 1.7685652
0.56317776 0.023931067 1.7685208
0.56635439 0.023930468 1.7684765
0.56953084 0.023929868 1.7684321
0.57270712 0.023929266 1.7683878
0.57587451 0.023928303 1.7683166
0.57903308 0.023926988 1.7682194
0.58219135 0.023925673 1.7681222
0.58536404 0.023924962 1.7680696
0.58855689 0.023925075 1.7680781
0.59174973 0.023925193 1.7680867
0.59493572 0.023925029 1.7680746
0.59811056 0.023924422 1.7680297
0.6076895 0.023924785 1.7680565
0.61103433 0.023930848 1.7685046
0.47742179 0.046305124 1.7699884
0.47389522 0.052655023 1.7687451
0.47055838 0.059019186 1.7681979
0.46774781 0.065452762 1.7696342
0.46738839 0.13559049 1.7682744
0.4675917 0.13884123 1.7690437
0.46779522 0.14209479 1.7698137
0.47063881 0.15794319 1.7685001
0.47086716 0.16121215 1.7693582
0.47370648 0.17385188 1.7680407
0.47394186 0.17712979 1.7689192
0.62393534 0.17712742 1.7688956
0.47417751 0.18041098 1.7697988
0.47696543 0.18982905 1.7682965
0.47721943 0.19312225 1.7692382
0.4801349 0.20258184 1.7682195
0.61732894 0.20258598 1.7682556
0.48039219 0.20588237 1.7691669
0.48350155 0.21542148 1.7688648
0.61456662 0.21549739 1.769488
0.48377374 0.21873598 1.7698605
0.48671779 0.22500724 1.7689549
0.61096507 0.22492447 1.7683042
0.48982167 0.23134899 1.7686381
0.49012843 0.23468691 1.7697458
0.6080699 0.23460963 1.7691631
0.49288976 0.23767176 1.7681972
0.49319631 0.24101178 1.7692969
0.60458952 0.24087867 1.7683196
0.49604535 0.24403517 1.7680737
0.49636891 0.24738644 1.769227
0.6018514 0.2506384 1.7696497
0.49953043 0.25375509 1.7691188
0.50243932 0.25680232 1.7681229
0.59868836 0.25703686 1.7697378
0.59492439 0.25998035 1.7680409
0.50277889 0.26016811 1.7693177
0.50571662 0.26322788 1.7684277
0.59554106 0.26344311 1.7698736
0.50605786 0.26659831 1.7696211
0.5920074 0.2664831 1.7688564
0.50907868 0.26969999 1.7690235
0.51210445 0.27280331 1.7684505
0.5890944 0.27299497 1.7696929
0.51521558 0.27595139 1.7681774
0.51245296 0.27618182 1.769654
0.58573806 0.27611086 1.7691993
0.51558 0.27933899 1.769428
0.51837456 0.27912477 1.7680711
0.58245969 0.27926147 1.768937
0.51874119 0.28251445 1.7693216
0.52156478 0.28231487 1.7680717
0.57924658 0.28244254 1.7688712
0.52192885 0.28570417 1.7693058
0.52479362 0.28552601 1.7682025
0.57607651 0.28564459 1.7689369
0.52517486 0.28892601 1.7694871
0.52808595 0.28877208 1.7685444
0.5694043 0.28868958 1.7680392
0.57290143 0.28884447 1.7689878
0.53433365 0.29188973 1.7681011
0.5663783 0.29196402 1.7685511
0.52846539 0.2921727 1.7698152
0.53136361 0.29201064 1.7688335
0.56987286 0.29211968 1.7694941
0.53473836 0.29530329 1.7694403
0.53774607 0.29520187 1.7688326
0.54078668 0.29511955 1.7683395
0.54393864 0.29509869 1.7682143
0.54709011 0.29507777 1.7680891
0.55344319 0.29506338 1.7680029
0.556741 0.2951206 1.7683457
0.56004018 0.29517788 1.7686889
0.56335056 0.29524037 1.7690634
0.54122251 0.29855046 1.7697647
0.54437298 0.29852712 1.7696263
0.5475229 0.29850373 1.7694876
0.55067235 0.29848036 1.7693491
0.55389476 0.2984966 1.7694454
0.55719477 0.29855421 1.7697868
0.48406193 0.023963461 1.7709148
0.48719162 0.023960244 1.770677
0.49030989 0.023956509 1.770401
0.49341884 0.023952371 1.7700952
0.48087937 0.039940145 1.770961
0.46508104 0.084705479 1.7716382
0.46499678 0.087885991 1.7713171
0.46498173 0.0910789 1.7712599
0.46497118 0.094272509 1.7712196
0.4649758 0.097469151 1.7712373
0.46498796 0.1006675 1.7712836
0.46501857 0.10387013 1.7714002
0.46508852 0.10708224 1.7716666
0.46516213 0.11029617 1.771947
0.46799919 0.14535129 1.7705853
0.4682036 0.1486107 1.7713586
0.47109568 0.16448426 1.7702169
0.47132447 0.16775955 1.7710766
0.47155842 0.17103983 1.7719557
0.47441342 0.18369544 1.7706792
0.47464952 0.18698314 1.7715604
0.6216625 0.1933706 1.7715133
0.47747374 0.19641896 1.7701809
0.47770435 0.19970918 1.7710359
0.47792882 0.20299986 1.7718681
0.61826873 0.20608957 1.7709475
0.48064965 0.20918639 1.7701151
0.48090681 0.2124937 1.7710621
0.48404619 0.22205418 1.7708572
0.48430395 0.22536917 1.7718003
0.48702845 0.22834449 1.7700839
0.6117636 0.22841303 1.7706153
0.48734987 0.23169093 1.7712522
0.49043345 0.23802796 1.7708472
0.60874426 0.23806535 1.7711253
0.49073878 0.24137315 1.7719496
0.49351826 0.24436341 1.7704519
0.60530347 0.24435733 1.7704078
0.49384066 0.24771944 1.7716085
0.4966861 0.25073865 1.7703576
0.49700186 0.25409421 1.7714831
0.60250175 0.25410551 1.7715619
0.49986818 0.2571207 1.7703149
0.50020641 0.26049086 1.7715127
0.59934044 0.26051331 1.7716653
0.50311887 0.26353845 1.7705142
0.50345933 0.26691335 1.7717123
0.59619087 0.26692727 1.7718047
0.50640869 0.26997814 1.7708479
0.59261137 0.26994964 1.7706611
0.50943148 0.27308083 1.7702494
0.50978404 0.27646595 1.7714746
0.58968729 0.27646586 1.771474
0.51280743 0.27956793 1.7708781
0.58632302 0.27958182 1.7709661
0.5159449 0.28273141 1.7706804
0.58302021 0.28272489 1.7706394
0.51910836 0.28590891 1.7705737
0.57981795 0.28591573 1.7706161
0.51631033 0.28612864 1.7719345
0.519476 0.28930819 1.7718278
0.52229345 0.2890982 1.7705418
0.57662427 0.28911078 1.7706189
0.52265853 0.29249698 1.7717794
0.52555668 0.29233092 1.7707736
0.57338548 0.29228285 1.7704824
0.52883893 0.29557464 1.7710663
0.53173906 0.29541057 1.7700832
0.5668425 0.29539678 1.7700006
0.57034779 0.29555839 1.7709689
0.53213179 0.29882476 1.7713906
0.53514367 0.298722 1.7707815
0.53815359 0.29861933 1.770173
0.56049597 0.29861179 1.7701283
0.56381202 0.29867664 1.7705126
0.56731504 0.29883921 1.7714763
0.54164708 0.30198026 1.7711531
0.54479998 0.30195659 1.7710143
0.54795229 0.3019329 1.7708755
0.55112004 0.30191794 1.7707876
0.55434716 0.30193546 1.7708905
0.55764985 0.30199376 1.7712324
0.53855848 0.30204022 1.7715049
0.56095386 0.30205208 1.7715744
0.47188151 0.055985942 1.7731698
0.46866581 0.062382136 1.7731073
0.46546865 0.07837788 1.7731147
0.46521521 0.08153256 1.7721492
0.46523586 0.11351115 1.7722279
0.46534473 0.11673597 1.7726426
0.46547678 0.11996824 1.7731457
0.46560895 0.12320237 1.7736491
0.46840817 0.15187296 1.7721326
0.46862373 0.15514165 1.7729481
0.46885625 0.158419 1.7738278
0.47179502 0.17432426 1.7728448
0.47203186 0.17761198 1.7737347
0.62563503 0.18081012 1.7737143
0.47488588 0.19027413 1.7724426
0.47512677 0.19357017 1.7733417
0.4781535 0.20629366 1.7727011
0.47837839 0.20959054 1.7735349
0.48116425 0.21580456 1.7720102
0.48141265 0.21911472 1.772925
0.61546326 0.219009 1.7720696
0.48163819 0.22241764 1.7737557
0.48457795 0.22869521 1.7728027
0.61265421 0.23194481 1.7731931
0.48489419 0.23204508 1.7739596
0.48766133 0.23503678 1.7723842
0.48796743 0.23838408 1.7734966
0.60947275 0.24154958 1.7732449
0.49104446 0.24472249 1.7730534
0.60597533 0.24782631 1.7723728
0.49415994 0.25107804 1.7727538
0.4944745 0.25443834 1.7738823
0.497318 0.25745401 1.7726098
0.6032024 0.25760102 1.7736222
0.49763456 0.26081809 1.7737381
0.50054508 0.26386562 1.7727122
0.59999502 0.26399779 1.7736002
0.5008806 0.267243 1.7739004
0.50378376 0.270284 1.7728541
0.59684199 0.27041903 1.7737398
0.50410438 0.27365667 1.7739823
0.50675023 0.27335736 1.7720422
0.59321827 0.27342406 1.7724744
0.50709146 0.27674079 1.7732356
0.51012725 0.27985036 1.7726672
0.59029144 0.27994853 1.773289
0.51047093 0.28323933 1.7738614
0.51316106 0.28295797 1.7720993
0.58688796 0.28304949 1.7726724
0.51351839 0.28635448 1.7733332
0.58358186 0.28619492 1.7723451
0.51667535 0.28953013 1.7731872
0.58039039 0.28939578 1.7723643
0.51984417 0.29271227 1.7730836
0.57712704 0.29256025 1.7721628
0.52302408 0.29590049 1.7730187
0.52593565 0.29573891 1.7720505
0.57390475 0.29574478 1.7720858
0.57763076 0.29601577 1.7737094
0.52630794 0.29914767 1.7733048
0.52921307 0.2989814 1.7723192
0.57082355 0.29900283 1.7724462
0.57442492 0.29921299 1.773692
0.52958775 0.30239299 1.7735739
0.53253555 0.30224991 1.7727348
0.53554964 0.30214593 1.7721248
0.56429207 0.30212805 1.77202
0.56778842 0.30228737 1.7729543
0.57130015 0.30245301 1.7739259
0.53595412 0.30557382 1.7734631
0.53896481 0.30546668 1.7728413
0.54207236 0.30541539 1.7725435
0.54522765 0.30539143 1.7724046
0.5483824 0.30536747 1.7722654
0.55157125 0.30536264 1.7722374
0.55480015 0.3053799 1.7723377
0.55810565 0.30543894 1.7726802
0.56141275 0.30549809 1.7730236
0.5647825 0.30559054 1.77356
0.54249823 0.30885592 1.7739362
0.54565597 0.30883166 1.7737969
0.54882723 0.30881533 1.7737031
0.55202323 0.30881301 1.7736896
0.55525398 0.30883002 1.7737874
0.57516104 0.020827558 1.7759649
0.57835913 0.020827336 1.775946
0.4790304 0.043256924 1.7759521
0.47531387 0.049611885 1.77404
0.46597642 0.072058208 1.7750489
0.46572238 0.075219765 1.7740812
0.46574116 0.12643832 1.7741528
0.46587345 0.12967612 1.7746567
0.46598697 0.13291037 1.7750891
0.46608654 0.13614212 1.7754683
0.46908015 0.16169657 1.7746749
0.46929598 0.16497436 1.7754915
0.47226894 0.18090302 1.7746255
0.47248679 0.18418977 1.7754443
0.47537071 0.1968707 1.7742522
0.62289101 0.19695525 1.7750142
0.47559512 0.2001663 1.7750897
0.47582257 0.20346621 1.7759386
0.61936474 0.20965578 1.774087
0.47860351 0.21289052 1.7743695
0.47885916 0.21620731 1.7753173
0.61636251 0.22253089 1.7746588
0.48188767 0.22573476 1.7746744
0.48216692 0.22906934 1.7757028
0.48522604 0.2354067 1.7751737
0.61355001 0.23548785 1.7757857
0.48827389 0.24173559 1.7746104
0.48857862 0.24509026 1.775718
0.61027151 0.24506967 1.7755688
0.4913505 0.24807599 1.7741585
0.49165729 0.25143385 1.7752662
0.60664868 0.25130302 1.7743423
0.49478984 0.25780311 1.7750136
0.60387319 0.26109105 1.7755944
0.49796489 0.26419359 1.7749156
0.60065097 0.26748991 1.7755393
0.50119942 0.27061567 1.7750297
0.5974946 0.27391842 1.7756792
0.50444573 0.2770448 1.7751836
0.59382641 0.27690557 1.7742915
0.50743324 0.28012875 1.7744305
0.50777543 0.28352129 1.7756273
0.5908969 0.28343835 1.7751077
0.51081508 0.2866329 1.7750573
0.5874539 0.28652385 1.774382
0.51388133 0.28975862 1.7745866
0.58414459 0.28967169 1.7740541
0.51424479 0.29316759 1.7758416
0.51703936 0.29293561 1.7744365
0.5809471 0.29287416 1.7740643
0.58472115 0.29316157 1.7758051
0.5174039 0.29634586 1.7756875
0.5202114 0.29612032 1.774336
0.58145469 0.29633367 1.7756143
0.52057815 0.29953265 1.775587
0.52339959 0.29931411 1.7742915
0.57815468 0.29948732 1.7753183
0.52378047 0.30273551 1.7755828
0.52668071 0.30256125 1.7745608
0.57494611 0.3026875 1.7753012
0.52705401 0.30597967 1.7758186
0.52996284 0.30580938 1.7748302
0.53293997 0.3056803 1.774081
0.56826508 0.30574262 1.7744428
0.57177746 0.30590898 1.7754081
0.53334397 0.30911529 1.7754259
0.53634828 0.30900067 1.7747675
0.53939641 0.30891249 1.774261
0.55856228 0.30888975 1.7741305
0.56188142 0.30895472 1.7745037
0.56527382 0.30905905 1.7751029
0.56875968 0.30921301 1.7759871
0.53982866 0.31236377 1.7756829
0.54292947 0.31230456 1.7753463
0.546085 0.31227732 1.7751915
0.54927737 0.31227139 1.7751577
0.55247593 0.312269 1.7751442
0.55570853 0.31228575 1.7752395
0.55902171 0.31234738 1.7755897
0.56235087 0.31241715 1.7759863
0.48917776 0.0208502 1.7778956
0.49230725 0.020846887 1.777613
0.49544883 0.020844126 1.7773776
0.49858958 0.020841364 1.7771422
0.50174928 0.020839427 1.7769769
0.50494295 0.020838916 1.7769334
0.50813651 0.020838406 1.7768899
0.51132989 0.020837896 1.7768464
0.51452315 0.020837385 1.7768029
0.51771623 0.020836875 1.7767594
0.52090901 0.020836361 1.7767155
0.52410161 0.020835845 1.7766715
0.52729416 0.020835331 1.7766277
0.53048629 0.020834809 1.7765832
0.53367823 0.020834286 1.7765386
0.53687 0.020833762 1.7764939
0.54006165 0.020833237 1.7764492
0.54325312 0.020832716 1.7764046
0.54644442 0.02083219 1.7763599
0.54963553 0.020831667 1.7763152
0.55282652 0.020831143 1.7762706
0.55601746 0.020830626 1.7762264
0.55920857 0.020830119 1.7761832
0.56239951 0.020829611 1.77614
0.56559032 0.020829106 1.7760968
0.56878096 0.020828599 1.7760537
0.57197142 0.020828092 1.7760104
0.58159083 0.020828322 1.7760299
0.58482963 0.020829549 1.7761346
0.58802158 0.020829102 1.7760965
0.59121025 0.020828545 1.776049
0.59442961 0.02082907 1.7760938
0.59764916 0.020829596 1.7761387
0.60086972 0.020830149 1.7761859
0.60411394 0.020831514 1.7763022
0.60746956 0.020836687 1.7767433
0.46623322 0.13938932 1.7760272
0.46638006 0.14263858 1.7765865
0.46653485 0.14589234 1.7771761
0.46670938 0.14915454 1.777841
0.46951205 0.16825517 1.7763089
0.46972829 0.17153899 1.777127
0.46994087 0.17482443 1.7779313
0.47270292 0.18747878 1.7762563
0.4729192 0.1907708 1.7770691
0.47313446 0.19406532 1.7778779
0.4760502 0.20676927 1.7767882
0.47627804 0.2100755 1.7776387
0.62054431 0.21326201 1.7774657
0.47909796 0.21951981 1.7762027
0.47934151 0.22283769 1.7771056
0.61731482 0.22608152 1.7774006
0.48247606 0.23242201 1.7768413
0.48553282 0.23876037 1.776296
0.48583606 0.24211632 1.7774054
0.48888379 0.24844913 1.7768271
0.61107242 0.24859902 1.777899
0.48918977 0.25181243 1.7779392
0.49195549 0.25479126 1.7763429
0.60732347 0.25478742 1.776316
0.49226961 0.25816095 1.7774771
0.49510932 0.26117417 1.7761596
0.49542922 0.26454958 1.7773073
0.60454535 0.26458883 1.7775708
0.49829116 0.26757115 1.7760786
0.4986088 0.2709482 1.7772107
0.60130185 0.27098671 1.7774633
0.50151873 0.27399266 1.7761605
0.50183845 0.27737397 1.7772927
0.59814864 0.2774255 1.7776229
0.5047875 0.28043753 1.7763864
0.59443581 0.28039426 1.7761123
0.50512981 0.28383484 1.7775909
0.59504646 0.28389007 1.7779368
0.50811809 0.2869184 1.7768254
0.59150356 0.28693533 1.7769302
0.51115966 0.29003102 1.7762548
0.58805728 0.29002279 1.7762043
0.51151949 0.29344222 1.7775052
0.51460874 0.29658136 1.7770985
0.58528686 0.29665223 1.7775232
0.51776892 0.29976094 1.7769402
0.58196312 0.29979917 1.7771668
0.52094543 0.30294979 1.7768396
0.57867968 0.30296525 1.7769303
0.52416527 0.30616382 1.7768872
0.57546818 0.30616832 1.7769133
0.52743614 0.30940783 1.777106
0.53033859 0.30923066 1.7760885
0.57225674 0.30937129 1.7768962
0.53072804 0.31266454 1.7773927
0.53373671 0.31254852 1.7767332
0.53674304 0.31243253 1.7760738
0.56576592 0.31253359 1.7766483
0.56925511 0.31268942 1.7775341
0.53715724 0.31588054 1.7774444
0.54026163 0.3158206 1.7771071
0.54336482 0.3157607 1.77677
0.54652691 0.31573549 1.7766281
0.54972816 0.31573308 1.7766147
0.55292934 0.31573066 1.7766011
0.55616379 0.31574717 1.7766939
0.55948907 0.31581473 1.7770741
0.56282109 0.31588534 1.7774713
0.47355601 0.052974064 1.779462
0.47008681 0.059362497 1.7784834
0.46694374 0.06899856 1.7787337
0.46688399 0.15241918 1.7785062
0.46705878 0.15568626 1.7791719
0.46723849 0.15895742 1.7798566
0.47014013 0.17810769 1.7786851
0.47033951 0.18139374 1.7794394
0.62754089 0.18457085 1.7791176
0.47332984 0.19735448 1.7786121
0.47352704 0.20064706 1.7793531
0.62412435 0.2005541 1.7785288
0.47650617 0.21338491 1.7784901
0.47673446 0.21669748 1.7793422
0.47958663 0.22615959 1.7780143
0.47986817 0.22950217 1.7790581
0.48282424 0.23579788 1.7781236
0.48313209 0.23915841 1.7792573
0.61444831 0.23904125 1.7783858
0.48613957 0.24547641 1.7785157
0.48643023 0.24883395 1.7795792
0.48949572 0.25517973 1.7790512
0.6079998 0.25827959 1.7782942
0.49258789 0.2615369 1.7786264
0.4929066 0.26491722 1.7797772
0.49573502 0.26792151 1.7784042
0.60522163 0.26809552 1.7795594
0.49604186 0.27129796 1.779505
0.49892682 0.27432954 1.7783443
0.60193425 0.27448201 1.7793328
0.49924529 0.27771524 1.7794794
0.50215858 0.2807596 1.7784265
0.59880406 0.28094023 1.7795708
0.50249445 0.2841582 1.779616
0.50547254 0.28723675 1.7787969
0.59565836 0.28739312 1.7797651
0.50846124 0.29032013 1.7780254
0.59212267 0.29044497 1.77879
0.50880486 0.29372644 1.7792269
0.58867413 0.29353505 1.7780675
0.51188189 0.29685941 1.7787645
0.58929217 0.29705465 1.7799344
0.51497322 0.29999998 1.7783571
0.58582026 0.30013257 1.7791432
0.51533818 0.30342343 1.7796175
0.51813447 0.30318084 1.7781948
0.58247244 0.30327076 1.7787222
0.51850057 0.30660558 1.7794511
0.52132213 0.30637699 1.7781245
0.57920563 0.30644953 1.7785454
0.52170032 0.30980971 1.7794144
0.52455056 0.30959713 1.7781934
0.57599163 0.30965567 1.7785296
0.5249365 0.31303552 1.7795016
0.52782393 0.31284398 1.7784127
0.57280952 0.31287915 1.7786126
0.53412998 0.31598681 1.7780423
0.52821225 0.31628516 1.7797211
0.53113186 0.31611171 1.7787452
0.56625897 0.3160142 1.7781965
0.56977099 0.31618276 1.779145
0.53452563 0.31943125 1.7793595
0.53758854 0.31934363 1.7788714
0.54069531 0.31928298 1.7785336
0.54380172 0.31922284 1.7781986
0.54697841 0.31920442 1.778096
0.55018079 0.31920111 1.7780775
0.55338353 0.31919804 1.7780604
0.55662376 0.31921649 1.7781632
0.55995715 0.3192879 1.7785609
0.56329209 0.31935933 1.7789588
0.56676137 0.31950569 1.7797742
0.54113442 0.32275376 1.7799779
0.54426664 0.32270676 1.7797188
0.54744387 0.32268685 1.779609
0.55064899 0.32268351 1.7795905
0.55386436 0.3226862 1.7796054
0.55713946 0.32272342 1.7798107
0.48341963 0.03693904 1.7803162
0.47722033 0.046597272 1.7811556
0.46742737 0.16223423 1.780576
0.46761641 0.16551371 1.7812961
0.47053909 0.18468258 1.7801945
0.47073883 0.1879742 1.7809502
0.47093248 0.19126609 1.7816828
0.47375342 0.20395488 1.7802038
0.47398001 0.20726584 1.7810552
0.47420681 0.21057998 1.7819074
0.62172842 0.21688201 1.7808573
0.4769761 0.22001927 1.780244
0.47722882 0.22334951 1.7811873
0.61828661 0.22964931 1.7801987
0.48016572 0.23285629 1.7801613
0.48046911 0.23621726 1.781286
0.48343882 0.24252246 1.7803869
0.61538529 0.24261926 1.7810975
0.48373586 0.24588567 1.7814809
0.48671481 0.25219217 1.7806202
0.61187541 0.25213763 1.7802353
0.48702005 0.25556499 1.781737
0.48979154 0.2585457 1.7801263
0.49008775 0.26191574 1.7812028
0.60877115 0.26181978 1.7805502
0.49321073 0.2682938 1.7808753
0.49350992 0.27167159 1.7819556
0.60590804 0.27161396 1.7815776
0.4963603 0.27468482 1.7806474
0.60257804 0.27798933 1.7812357
0.49667913 0.27807602 1.7817912
0.49956411 0.28110522 1.7806158
0.49988338 0.28449956 1.7817538
0.59944659 0.2844559 1.7814804
0.50283581 0.28756425 1.7808249
0.50581568 0.2906433 1.7800046
0.59629381 0.29091424 1.7816639
0.59274465 0.29396281 1.7806586
0.50615937 0.29405448 1.781214
0.50914991 0.29713795 1.7804335
0.5095129 0.30056438 1.7817029
0.51224476 0.30028141 1.7800255
0.58986938 0.30056015 1.7816777
0.51260817 0.30370829 1.7812883
0.58638829 0.30363667 1.7808683
0.51570374 0.30685174 1.7808799
0.58298481 0.30674958 1.7802869
0.57973915 0.30994365 1.7801836
0.51887226 0.31003824 1.7807269
0.52207905 0.31324741 1.7807062
0.57653922 0.313162 1.7802205
0.58029079 0.31345347 1.7818775
0.52245831 0.31669012 1.7819998
0.52532297 0.31647897 1.7808117
0.57337952 0.3164027 1.7803825
0.57708788 0.31667495 1.7819145
0.52860874 0.31973597 1.781057
0.53154522 0.31956947 1.7801294
0.57030571 0.31969249 1.7808146
0.53195918 0.32303262 1.7815158
0.53495091 0.32289833 1.7807752
0.53802419 0.32281452 1.780313
0.56045336 0.32278258 1.7801369
0.56376845 0.32284176 1.7804633
0.56729341 0.32301977 1.781445
0.53846174 0.32629174 1.7817609
0.54159403 0.32624209 1.7814897
0.54473573 0.3261987 1.7812527
0.54791009 0.32617521 1.7811246
0.55113 0.32617897 1.7811451
0.55438429 0.32620296 1.781276
0.55766881 0.32624426 1.7815017
0.5609898 0.32630637 1.7818408
0.55200201 0.017702689 1.7839633
0.55520642 0.017702233 1.7839174
0.55841064 0.017701779 1.7838717
0.56161469 0.017701324 1.7838258
0.56484258 0.01770162 1.7838556
0.5680728 0.017701985 1.7838925
0.57130319 0.017702352 1.7839295
0.57453609 0.017702792 1.7839737
0.46507576 0.098164782 1.7838783
0.46500373 0.1013676 1.7836021
0.46493176 0.10456943 1.783326
0.46485981 0.10777027 1.7830501
0.4647949 0.11097179 1.782801
0.46476883 0.11418196 1.782701
0.46478561 0.11740259 1.7827654
0.46483213 0.12063117 1.7829438
0.46487865 0.1238604 1.7831223
0.46494168 0.12709479 1.7833641
0.4650121 0.13033211 1.7836342
0.46508658 0.13357158 1.7839198
0.46780559 0.16879582 1.7820168
0.4679949 0.17208061 1.782738
0.46818441 0.17536804 1.7834598
0.47111452 0.19455582 1.7823715
0.47130951 0.19785349 1.7831093
0.47150469 0.20115387 1.7838477
0.6258449 0.20432469 1.7834318
0.47443736 0.21389887 1.7827737
0.47467664 0.21722491 1.7836729
0.47748208 0.22668341 1.7821325
0.47773561 0.23002085 1.7830788
0.61929482 0.23324092 1.7831017
0.4807719 0.23958199 1.7824086
0.48108143 0.24295416 1.7835561
0.61635602 0.24622056 1.7839072
0.48403025 0.24925146 1.782565
0.4843199 0.25261867 1.7836317
0.61268055 0.25568557 1.7825778
0.48732322 0.25894073 1.7828461
0.48761788 0.2623159 1.7839241
0.49038425 0.26528984 1.7822804
0.60957235 0.2653811 1.7828935
0.49068141 0.26866817 1.7833605
0.49380949 0.2750535 1.7830373
0.60659599 0.27514037 1.7836004
0.49699837 0.28147158 1.7829365
0.60326207 0.2815223 1.7832577
0.50020307 0.28789821 1.7828932
0.60007852 0.28797334 1.7833583
0.50317758 0.29097489 1.7820354
0.5035156 0.29438773 1.7832326
0.59694874 0.2944518 1.7836207
0.50649798 0.29746705 1.7824055
0.59336793 0.297488 1.782531
0.50683242 0.30088148 1.7835826
0.50987774 0.3039965 1.7829788
0.59043056 0.30406368 1.7833728
0.51297438 0.30714139 1.7825608
0.5869574 0.30714756 1.7825967
0.5133419 0.3105799 1.783838
0.51606977 0.31028494 1.7821438
0.58354765 0.31026089 1.7820057
0.51645088 0.31373182 1.7834599
0.51924926 0.31347865 1.7820207
0.58410639 0.31377617 1.7837119
0.5196358 0.31692958 1.7833472
0.58085525 0.31697643 1.7836108
0.52570999 0.31992748 1.7821237
0.57395065 0.31993327 1.782156
0.52283818 0.32013783 1.7832954
0.57763755 0.32019463 1.7836118
0.52610487 0.32338557 1.7834624
0.52900612 0.32319221 1.782396
0.57084668 0.32321176 1.7825038
0.57452291 0.32347089 1.7839329
0.5294041 0.3266536 1.7837368
0.53238565 0.3265084 1.782944
0.53539443 0.32638159 1.7822515
0.56442732 0.32643515 1.782544
0.56789237 0.32657835 1.7833259
0.53586394 0.3298862 1.7838144
0.53892219 0.32978821 1.7832845
0.54206127 0.32974052 1.7830267
0.54520565 0.32969663 1.7827893
0.54839081 0.32967776 1.7826873
0.55164778 0.32970205 1.7828186
0.55490524 0.32972631 1.7829498
0.55821097 0.32977882 1.7832338
0.56164813 0.32990792 1.7839319
0.49446568 0.017717011 1.7854067
0.49763474 0.017715152 1.7852193
0.5008052 0.017713368 1.7850394
0.50397503 0.017711582 1.7848595
0.50714421 0.017709797 1.7846797
0.51034439 0.017709112 1.7846105
0.51354706 0.017708519 1.7845509
0.51674956 0.017707927 1.7844913
0.51995176 0.017707337 1.7844317
0.52315384 0.017706744 1.7843721
0.52635849 0.017706249 1.784322
0.52956492 0.017705819 1.7842788
0.53277129 0.01770539 1.7842355
0.53597736 0.017704958 1.7841921
0.53918284 0.017704511 1.7841469
0.54238784 0.017704055 1.784101
0.54559273 0.0177036 1.7840551
0.54879749 0.017703144 1.7840092
0.57780027 0.017704187 1.7841142
0.581065 0.017705582 1.7842549
0.58431929 0.017706644 1.784362
0.58757323 0.017707687 1.784467
0.59082764 0.01770873 1.7845721
0.59408242 0.017709773 1.7846773
0.59735155 0.017711231 1.7848243
0.60057598 0.017711356 1.7848368
0.60384506 0.017712789 1.7849811
0.46833 0.065984644 1.7840145
0.46544904 0.091801368 1.7853101
0.46514776 0.094960965 1.7841545
0.46516129 0.13681214 1.7842064
0.46525863 0.14006056 1.7845798
0.46539155 0.14332128 1.7850896
0.46552452 0.14658386 1.7855997
0.46562201 0.14983684 1.7859735
0.46835816 0.17865209 1.7841218
0.46852598 0.1819362 1.784761
0.46869385 0.18522266 1.7854005
0.46884468 0.18850456 1.785975
0.47170222 0.20445795 1.784595
0.47192979 0.20777796 1.7854559
0.47492659 0.22055914 1.7846122
0.62292087 0.2205172 1.7842729
0.47517678 0.22389686 1.7855523
0.47804585 0.23338939 1.7842368
0.47830117 0.23673491 1.7851896
0.48137382 0.24632171 1.7846401
0.4816393 0.24967924 1.7856244
0.48460189 0.25598571 1.7846702
0.48488474 0.25935695 1.7857119
0.61347836 0.2592389 1.784899
0.48790297 0.26568973 1.7849671
0.61035067 0.26894078 1.78517
0.49098015 0.2720513 1.7844462
0.49127921 0.27543852 1.7855332
0.49411517 0.27844274 1.7841411
0.60729909 0.27868101 1.7856677
0.49443316 0.28184301 1.7852893
0.49731803 0.28487149 1.7840831
0.60394764 0.2850633 1.7852844
0.49763787 0.28827566 1.7852305
0.50053054 0.29130557 1.7840605
0.6007117 0.29149818 1.7852402
0.50086141 0.29471907 1.7852397
0.50384831 0.2978017 1.7844107
0.59758294 0.29798612 1.7855157
0.50418139 0.30122018 1.7855904
0.59396821 0.30100828 1.7843343
0.50718343 0.30431008 1.7848178
0.51024318 0.30743361 1.7842567
0.59099287 0.30757394 1.7850711
0.51060915 0.31087559 1.7855363
0.58752763 0.31066528 1.7843285
0.51371002 0.31402338 1.7851171
0.51686007 0.31720072 1.784873
0.58469027 0.31731126 1.7854949
0.52004874 0.32040155 1.7847644
0.58143586 0.3205145 1.7853936
0.52324826 0.32360893 1.7846942
0.57823199 0.32374546 1.7854472
0.52655995 0.32688582 1.785005
0.57145959 0.32677832 1.7844179
0.52994388 0.33020818 1.7855555
0.53288877 0.33003688 1.7846291
0.56509399 0.33004063 1.7846495
0.56864238 0.33023143 1.7856811
0.54286599 0.33345181 1.7856737
0.54601836 0.33340946 1.7854469
0.54920721 0.33338973 1.7853413
0.55251491 0.33344194 1.7856209
0.47577024 0.049996197 1.7877823
0.47208682 0.056392625 1.7860501
0.4659678 0.088678993 1.7873
0.46570948 0.1530879 1.7863091
0.465803 0.15634218 1.7866678
0.46592861 0.15960877 1.7871497
0.46606746 0.1628817 1.7876822
0.46898589 0.19178461 1.7865129
0.46912643 0.19506632 1.7870483
0.4692806 0.19835572 1.7876356
0.47215906 0.21110183 1.7863233
0.47239107 0.21443008 1.7872012
0.6241402 0.2241744 1.7877656
0.47542679 0.2272379 1.7864918
0.47567159 0.23057978 1.7874116
0.6204803 0.23691066 1.7865149
0.47854996 0.24008062 1.7861183
0.47879907 0.24342982 1.787048
0.4790484 0.24678251 1.7879786
0.6173299 0.24983326 1.7867259
0.4819113 0.25304374 1.7866328
0.48219985 0.25642067 1.7877026
0.48516661 0.26273143 1.78675
0.61438495 0.26284713 1.7875367
0.48544174 0.26610595 1.7877632
0.48818842 0.26906756 1.7860113
0.48848346 0.27245447 1.7870908
0.61112094 0.2725051 1.7874229
0.49157867 0.27882987 1.7866216
0.49187848 0.28222534 1.7877111
0.60802853 0.28224134 1.7878125
0.4947516 0.28524765 1.7864391
0.495067 0.28865469 1.7875779
0.60463482 0.28861234 1.7873156
0.49795413 0.29168189 1.7863652
0.49827084 0.29509243 1.7875013
0.60134625 0.29503047 1.7871259
0.50119263 0.2981371 1.7864205
0.50152439 0.30155969 1.7876029
0.59821427 0.3015258 1.787402
0.50451493 0.30464318 1.7867717
0.59453416 0.30451748 1.7860343
0.50754589 0.30775008 1.7860934
0.50485396 0.30807382 1.7879723
0.59513515 0.30805099 1.7878399
0.50790894 0.31119499 1.7873708
0.59155613 0.31109083 1.7867726
0.5109756 0.31432253 1.7868178
0.58809733 0.31418899 1.7860587
0.51410091 0.31748551 1.7864754
0.58865613 0.31771302 1.7877557
0.5145089 0.32096323 1.7878932
0.51726991 0.3206751 1.7862883
0.58527529 0.32085338 1.7872814
0.52046233 0.32387903 1.7861838
0.51768041 0.324155 1.7877058
0.58205146 0.32407853 1.787284
0.52092999 0.32739565 1.7877889
0.52373725 0.32713434 1.7863621
0.57524967 0.32710275 1.7861896
0.57902628 0.32741597 1.7878999
0.52708417 0.33043501 1.786782
0.57228214 0.33047277 1.7869862
0.53388304 0.33387852 1.7879587
0.53683543 0.33370852 1.7870485
0.53980404 0.33355054 1.7862024
0.55590612 0.33354366 1.7861656
0.55926174 0.33362299 1.7865905
0.5626933 0.33374646 1.7872516
0.48254064 0.040346205 1.7889659
0.46655661 0.085562289 1.7895584
0.46622491 0.16616321 1.7882861
0.46638247 0.16944692 1.7888905
0.4665454 0.1727348 1.7895154
0.46948138 0.20166726 1.7884004
0.4696919 0.20498581 1.7892023
0.62791049 0.2082274 1.789318
0.47262537 0.21776254 1.7880876
0.47287306 0.22110447 1.7890247
0.47311214 0.22444569 1.7899292
0.47592175 0.23392765 1.7883517
0.47615668 0.23727129 1.7892344
0.47933021 0.25015551 1.7890304
0.61829555 0.25345275 1.7895206
0.48248583 0.25980008 1.7887628
0.48277256 0.26318371 1.7898258
0.48571721 0.26948431 1.7887777
0.48599309 0.27286655 1.7897937
0.48878145 0.27584696 1.7881809
0.61189318 0.27607843 1.7896816
0.48908302 0.27924544 1.7892842
0.49218214 0.28562701 1.7888148
0.49248937 0.28903475 1.7899314
0.49538204 0.29206565 1.7887155
0.60533893 0.29217693 1.789397
0.49569753 0.29548094 1.7898546
0.49860039 0.29851478 1.7886835
0.60198218 0.29857025 1.7890158
0.49893084 0.30194196 1.789869
0.50185657 0.30498677 1.7887868
0.59885114 0.30507511 1.7893049
0.50218916 0.30841842 1.7899723
0.50521541 0.3115226 1.7892525
0.59575921 0.31160307 1.7897146
0.50827241 0.31464484 1.78865
0.59212059 0.31461447 1.7884774
0.51134259 0.31777442 1.7881012
0.50863874 0.31810108 1.7899392
0.51176077 0.32126307 1.7895635
0.58921599 0.32124379 1.789456
0.51493853 0.32445973 1.7893863
0.58589536 0.32442141 1.7891749
0.51818711 0.32770088 1.7894557
0.58281696 0.32773364 1.7896345
0.52156281 0.33102283 1.7899606
0.52427632 0.33069736 1.7882006
0.5760501 0.33078507 1.7886748
0.53108484 0.3341476 1.7893997
0.56639153 0.3340258 1.7887474
0.53185505 0.014549227 1.7919949
0.535074 0.01454884 1.7919472
0.53829271 0.014548452 1.7918994
0.5415113 0.014548064 1.7918518
0.54473227 0.014547746 1.7918125
0.54796201 0.014547664 1.7918024
0.5512051 0.014547936 1.7918359
0.55444956 0.014548238 1.7918732
0.55769408 0.014548541 1.7919105
0.56093872 0.014548844 1.7919477
0.56418359 0.014549146 1.791985
0.47042045 0.063046038 1.7919776
0.46668994 0.176018 1.7900698
0.46680081 0.17929028 1.790495
0.4669117 0.18256408 1.7909204
0.46703196 0.18584317 1.7913817
0.46713573 0.18911724 1.7917798
0.46994787 0.20832741 1.7901775
0.47019687 0.21166939 1.7911259
0.47040215 0.2149948 1.7919079
0.47334883 0.22778903 1.7908247
0.47359526 0.23114035 1.791757
0.47640577 0.24062529 1.7901704
0.62169087 0.24060245 1.7900004
0.47665998 0.24398528 1.7911257
0.47961354 0.2535331 1.7900879
0.47989723 0.25691468 1.7911468
0.48305047 0.26656631 1.7908561
0.61534238 0.26648685 1.7903223
0.48332575 0.26995116 1.7918767
0.4862856 0.27626193 1.7908709
0.48659024 0.27966812 1.7919928
0.48938975 0.28265083 1.7904063
0.60877532 0.28581759 1.7900084
0.48969686 0.28606054 1.7915299
0.49280322 0.29245043 1.7910721
0.60604864 0.29575175 1.791495
0.49601343 0.2989006 1.7909952
0.60266876 0.30214226 1.7910563
0.49926171 0.30537367 1.7910559
0.59949023 0.30863243 1.7912143
0.50252217 0.3118546 1.7911594
0.50557739 0.3149763 1.7905344
0.59638458 0.31516257 1.7915932
0.50595498 0.31844449 1.7918717
0.59272724 0.31816694 1.7903098
0.50904703 0.32158846 1.791376
0.51222271 0.32478473 1.7911787
0.58985698 0.32482535 1.7914027
0.51546258 0.32802165 1.7912073
0.58671653 0.3281087 1.7916826
0.51884401 0.33134899 1.7917242
0.57982171 0.33109596 1.790356
0.52859765 0.33461687 1.7919128
0.57029778 0.33442393 1.7908795
0.50321078 0.014562369 1.7936137
0.50629663 0.01455805 1.7930816
0.50944543 0.014555584 1.7927779
0.51262861 0.014554124 1.7925981
0.51582354 0.014553016 1.7924616
0.51901805 0.014551908 1.7923251
0.52221197 0.014550799 1.7921885
0.52541673 0.014550001 1.7920903
0.52863598 0.014549614 1.7920426
0.56742853 0.014549449 1.7920223
0.57069623 0.014550328 1.7921306
0.57397503 0.01455148 1.7922724
0.57725441 0.014552632 1.7924144
0.58053434 0.014553785 1.7925564
0.58382183 0.014555115 1.7927202
0.58712333 0.014556777 1.7929249
0.59042376 0.014558394 1.7931241
0.5937798 0.014561357 1.793489
0.46763426 0.082523689 1.7936919
0.4672218 0.19238545 1.7921098
0.46733499 0.19566621 1.792544
0.46748939 0.19896607 1.7931362
0.4677141 0.20229848 1.7939981
0.47060969 0.21832408 1.7926985
0.47082958 0.22166203 1.7935361
0.6258229 0.22801299 1.7925854
0.47384897 0.23449863 1.7927169
0.47410294 0.23786052 1.7936777
0.62291175 0.24431083 1.7935156
0.47691444 0.24734885 1.7920818
0.4771677 0.25071523 1.7930335
0.47740582 0.25407699 1.7939283
0.61928254 0.25709119 1.7923774
0.48016652 0.26029229 1.7921518
0.48042902 0.26366979 1.7931316
0.61630273 0.27013794 1.7931165
0.48360309 0.27334088 1.7929049
0.48388985 0.27673966 1.793968
0.61272377 0.27968657 1.7921109
0.48689586 0.283079 1.7931184
0.49000007 0.28947198 1.7926391
0.60954571 0.28941295 1.7922736
0.4903031 0.29288733 1.7937478
0.49311748 0.29587048 1.7922143
0.49343213 0.29929489 1.7933578
0.60677892 0.29934427 1.7936537
0.49633592 0.30232838 1.7921597
0.49666548 0.30576473 1.7933496
0.60337478 0.30573148 1.7931545
0.49959299 0.30880991 1.7922444
0.49992409 0.31225032 1.7934322
0.60013282 0.31219849 1.7931345
0.50288737 0.31531522 1.7924609
0.50326538 0.31878868 1.7938083
0.59701121 0.31872958 1.7934757
0.50633514 0.32191917 1.7932181
0.59334713 0.32173318 1.7921822
0.50950557 0.32511309 1.7929896
0.51273239 0.32834283 1.7929611
0.58420241 0.33174929 1.7938888
0.50015324 0.01456757 1.7942542
0.59720224 0.014565909 1.7940496
0.46496484 0.12798683 1.7958812
0.46492234 0.13121502 1.795717
0.46489608 0.13444729 1.7956156
0.46486986 0.13767922 1.7955142
0.46484357 0.14091077 1.7954128
0.46481735 0.14414196 1.7953115
0.46480957 0.14737864 1.7952814
0.46488357 0.15064171 1.7955673
0.46495765 0.15390584 1.7958534
0.46793914 0.20563415 1.7948613
0.46813667 0.20896067 1.795619
0.47104967 0.22500311 1.7943745
0.47128561 0.22835489 1.7952733
0.4743453 0.24121995 1.7945945
0.47457877 0.24457814 1.7954779
0.47764418 0.25744212 1.7948239
0.47791001 0.26082546 1.7958229
0.62044901 0.26081538 1.7957534
0.48069787 0.26705438 1.794135
0.4809804 0.27045026 1.7951895
0.61726612 0.27380046 1.7959194
0.48418337 0.28014624 1.7950562
0.6135695 0.28331044 1.7945845
0.48720184 0.28649411 1.7942452
0.48750672 0.28991261 1.795368
0.61031812 0.29301745 1.7945447
0.49060649 0.29630688 1.7948577
0.49091026 0.29973069 1.7959691
0.49374717 0.30272368 1.7945029
0.60751098 0.30294549 1.7958177
0.49406263 0.30615684 1.7956494
0.49699548 0.30920565 1.7945412
0.60408252 0.30932912 1.7952578
0.49732 0.31264743 1.7957129
0.50024283 0.31568724 1.7945757
0.6008473 0.31580922 1.7952691
0.50060922 0.31915861 1.79589
0.50364393 0.32226735 1.7951577
0.59764755 0.32230857 1.7953873
0.50678813 0.32544541 1.7948223
0.59397221 0.32530901 1.7940701
0.51015991 0.32876971 1.7952921
0.59071845 0.32853657 1.7940191
0.51641011 0.3318623 1.7944999
0.48154861 0.043777145 1.7973102
0.465305 0.12159538 1.797195
0.46503732 0.12476611 1.7961611
0.46503171 0.157171 1.7961395
0.46510583 0.1604372 1.7964257
0.46517679 0.16370332 1.7966998
0.46527582 0.16698052 1.7970823
0.46538216 0.17026177 1.797493
0.46548858 0.17354453 1.797904
0.46830845 0.21227822 1.7962779
0.46846944 0.2155932 1.7968954
0.46864784 0.21891853 1.7975796
0.47153637 0.23171718 1.7962285
0.47178742 0.23508307 1.7971848
0.47481248 0.24793962 1.796362
0.62418175 0.24805145 1.7971723
0.47504643 0.25130442 1.7972472
0.47817922 0.26421428 1.7968343
0.47845319 0.26760942 1.7978638
0.4812634 0.27385023 1.7962458
0.48153973 0.27725014 1.7972771
0.48448303 0.28356031 1.7961671
0.48479986 0.28698856 1.7973418
0.61441755 0.28694433 1.7970649
0.48780864 0.29333344 1.7964799
0.4881269 0.29676819 1.797652
0.61111724 0.29664311 1.7968944
0.49121442 0.30315873 1.7970818
0.60824478 0.30655539 1.7979869
0.49439129 0.30960241 1.7968439
0.49470928 0.31304556 1.7979996
0.60479188 0.3129352 1.7973659
0.49763748 0.31608897 1.7968594
0.60156113 0.31942734 1.797402
0.50098658 0.32264185 1.7972438
0.5041393 0.32582638 1.7969233
0.50760347 0.32921246 1.7977098
0.46601564 0.1152861 1.7999398
0.46565384 0.11844157 1.7985424
0.4655982 0.17682998 1.7983274
0.46573329 0.18012682 1.7988492
0.465855 0.18342026 1.7993193
0.46593359 0.18669814 1.7996229
0.46601239 0.18997718 1.7999272
0.46883237 0.22224925 1.7982875
0.46907994 0.22561285 1.7992371
0.62773919 0.2319553 1.7980744
0.47203872 0.23845255 1.7981421
0.47229028 0.24182561 1.7991004
0.47528437 0.25467455 1.7981473
0.47553059 0.25805244 1.7990789
0.62167114 0.26457545 1.7992907
0.4787294 0.27100953 1.7989018
0.47900653 0.27441391 1.7999432
0.61828476 0.27749789 1.7988831
0.48184234 0.28066912 1.7984066
0.48215789 0.28409976 1.7995843
0.48509642 0.29040891 1.7984413
0.61526793 0.29058829 1.7995522
0.48537669 0.29382336 1.7994803
0.48845088 0.30021068 1.7988452
0.61196309 0.30030018 1.7993815
0.49152696 0.30659604 1.7982253
0.49183074 0.31003192 1.7993366
0.49502826 0.31649348 1.7991589
0.60554999 0.31657439 1.7996188
0.49795538 0.3195349 1.7980072
0.49835142 0.32303563 1.7994373
0.50151408 0.32622761 1.7991362
0.59859192 0.32606226 1.7982243
0.51421934 0.33253932 1.7981608
0.51188743 0.011375276 1.8013716
0.51505142 0.011373376 1.8010705
0.51823676 0.011371966 1.8008473
0.52142125 0.011370556 1.8006241
0.52463144 0.011369722 1.8004919
0.52786696 0.011369443 1.8004477
0.53109729 0.011369055 1.8003863
0.53432739 0.011368668 1.8003249
0.53755718 0.011368279 1.8002634
0.5407868 0.011367891 1.800202
0.54402596 0.011367706 1.8001727
0.54728007 0.011367835 1.8001932
0.55053431 0.011367965 1.8002137
0.55380619 0.011368455 1.8002913
0.55708015 0.011368982 1.8003749
0.56035447 0.011369511 1.8004584
0.56358129 0.011369075 1.8003894
0.56680471 0.011368576 1.8003104
0.57009566 0.01136943 1.8004456
0.57343048 0.011371142 1.8007169
0.57689023 0.011375301 1.8013754
0.58019757 0.011376423 1.801553
0.58349824 0.011377404 1.8017083
0.46639228 0.11212915 1.8013945
0.466129 0.19327301 1.8003776
0.46620125 0.19655176 1.8006567
0.46629667 0.19984144 1.8010253
0.46639669 0.20313445 1.8014115
0.46652174 0.20643994 1.8018945
0.46933809 0.22898503 1.8002273
0.46959633 0.23236081 1.8012178
0.47252974 0.24519585 1.8000126
0.47277182 0.24857074 1.8009347
0.47301471 0.25194943 1.80186
0.47577709 0.26143384 1.8000115
0.47602969 0.26482198 1.8009672
0.47629067 0.26821828 1.8019545
0.47927949 0.27781963 1.8009689
0.47955278 0.28122926 1.8019958
0.61931324 0.28121048 1.8018755
0.48246184 0.28752777 1.8007188
0.48274097 0.29094487 1.8017606
0.48569521 0.29726496 1.8006612
0.48601815 0.30071357 1.8018584
0.48877534 0.30365777 1.80004
0.61282563 0.30397451 1.8019177
0.4890891 0.30710244 1.8011955
0.60903168 0.31020012 1.8003129
0.49213195 0.31347018 1.8004385
0.49246353 0.31693196 1.8016516
0.49536234 0.31995535 1.8003731
0.4957757 0.32347333 1.8018755
0.6025393 0.32319495 1.8003248
0.49903938 0.32673261 1.8019212
0.50517577 0.32974494 1.8006176
0.52778918 0.33616108 1.8001822
0.50917602 0.011387323 1.8032792
0.46666598 0.20975579 1.8024516
0.46681294 0.21307491 1.8030193
0.46692991 0.21638216 1.8034711
0.46705905 0.21969678 1.8039699
0.46984643 0.2357361 1.8021771
0.47009367 0.23911339 1.8031254
0.62597084 0.25201422 1.8023235
0.47325787 0.25533158 1.8027862
0.4734773 0.2587041 1.8036221
0.62289816 0.26835039 1.8028419
0.47654277 0.27161312 1.8029083
0.47681099 0.27502066 1.803923
0.47982794 0.28464371 1.8030298
0.4830204 0.29436597 1.8028035
0.61625254 0.29430529 1.8024319
0.48330015 0.297791 1.8038477
0.48634151 0.30416676 1.8030573
0.48935649 0.3105219 1.8021803
0.4896453 0.31395862 1.8032439
0.60983294 0.31386068 1.8026814
0.4927963 0.32039893 1.8028691
0.60647756 0.32031122 1.8023756
0.46722063 0.22302866 1.8045939
0.46742693 0.22638448 1.8053907
0.47034115 0.24249423 1.8040746
0.47058892 0.24587864 1.805025
0.47080868 0.24925166 1.805868
0.47369418 0.26207823 1.8044482
0.47391498 0.26545754 1.8052894
0.47709849 0.27844316 1.8050108
0.62041581 0.28496787 1.8050833
0.48012242 0.28807345 1.8041363
0.48041797 0.29150784 1.8052468
0.61728787 0.29805723 1.8054602
0.48358023 0.30122 1.804893
0.48386049 0.3046529 1.8059391
0.48660797 0.30758831 1.8040452
0.61369061 0.30765921 1.804461
0.48687446 0.31101343 1.8050331
0.48994738 0.31740776 1.8043563
0.61068851 0.31755805 1.8052106
0.49029884 0.32089326 1.8056507
0.49333897 0.32400811 1.8048544
0.49671379 0.32734251 1.8052849
0.46791929 0.10923552 1.8072925
0.46766001 0.22975631 1.806291
0.46789333 0.23313153 1.8071922
0.47102267 0.25262463 1.8066888
0.47123688 0.25600067 1.8075104
0.47416162 0.26885453 1.8062289
0.47440493 0.27225301 1.8071557
0.62430799 0.27221784 1.8069223
0.47737336 0.28186208 1.8060507
0.47761059 0.28526229 1.8069482
0.47785041 0.28866732 1.8078555
0.48071387 0.29494649 1.8063588
0.48101017 0.29838935 1.8074721
0.48413929 0.30808866 1.8069797
0.61458629 0.31136864 1.8070946
0.48715094 0.3144486 1.8060582
0.48747876 0.31792092 1.8072735
0.6079303 0.32433814 1.8066928
0.5271371 0.0081600174 1.8090911
0.53038788 0.0081598135 1.8090459
0.53363848 0.0081596104 1.8090008
0.5368892 0.0081594102 1.8089566
0.54017335 0.0081597185 1.8090249
0.54345781 0.0081600267 1.8090932
0.54674244 0.008160335 1.8091615
0.55002737 0.0081606433 1.80923
0.55331248 0.0081609506 1.8092982
0.55654442 0.0081604747 1.8091927
0.55982864 0.0081607671 1.8092574
0.56311309 0.0081610586 1.8093221
0.56643891 0.0081619443 1.8095183
0.46512294 0.15504098 1.8090987
0.46505645 0.15828237 1.8088402
0.46503717 0.16153923 1.8087652
0.46501788 0.16479582 1.8086902
0.46499863 0.16805214 1.8086152
0.46497935 0.17130817 1.8085402
0.46502391 0.17458792 1.8087136
0.46509853 0.1778798 1.8090038
0.46517316 0.18117271 1.8092941
0.46523657 0.18446222 1.8095407
0.46527672 0.18774325 1.8096969
0.46531692 0.19102484 1.8098532
0.46812028 0.23650676 1.8080688
0.46834236 0.23988266 1.8089265
0.46854606 0.24325213 1.8097132
0.62850678 0.25630018 1.8096251
0.47145739 0.25938314 1.8083562
0.47168773 0.26277414 1.8092397
0.47464854 0.27565497 1.8080837
0.47491056 0.27907115 1.8090818
0.47514695 0.28247568 1.8099823
0.62167704 0.28881058 1.8087528
0.47814518 0.29210916 1.8089707
0.48123813 0.3017934 1.8083287
0.61833221 0.30182442 1.8085146
0.48146224 0.3051981 1.8091708
0.48441845 0.31152835 1.8080215
0.48469391 0.31496945 1.8090497
0.61557323 0.31513432 1.8099966
0.48793226 0.32148045 1.8089548
0.61196315 0.32148463 1.8089783
0.491025 0.32463112 1.8083249
0.57007337 0.0081672398 1.8106924
0.46572906 0.14870647 1.8114562
0.46542579 0.15187578 1.8102766
0.46535707 0.19430698 1.8100094
0.46538606 0.19758496 1.8101221
0.46546865 0.20088647 1.8104434
0.46556196 0.20419383 1.8108063
0.46565524 0.20750251 1.8111691
0.46574998 0.21081315 1.8115376
0.46584722 0.21412627 1.8119159
0.46874231 0.24662052 1.8104713
0.46893877 0.24999174 1.8112301
0.47191834 0.26616848 1.8101243
0.4721517 0.26956758 1.8110193
0.47238222 0.27296826 1.8119035
0.62601525 0.27623126 1.8118637
0.47538355 0.28588358 1.8108836
0.47562039 0.28929487 1.8117858
0.47844028 0.29555526 1.8100872
0.47866067 0.29895872 1.810921
0.47887769 0.30236307 1.8117421
0.61942852 0.30562833 1.8117212
0.48174018 0.3086403 1.8102152
0.48200414 0.31207725 1.8112072
0.48504138 0.31846151 1.8103465
0.46637332 0.14236659 1.8139621
0.46603268 0.14553301 1.8126372
0.4659445 0.21744077 1.8122942
0.46604857 0.22075984 1.812699
0.46615529 0.22408167 1.813114
0.46626207 0.22740501 1.8135294
0.46637651 0.23073363 1.8139745
0.46916679 0.25338277 1.8121108
0.46937901 0.25676832 1.8129305
0.46956801 0.26014397 1.8136605
0.47260153 0.27636561 1.8127447
0.47283906 0.27977675 1.8136559
0.47585979 0.29271102 1.8126978
0.62297249 0.29268262 1.8125219
0.4761067 0.2961351 1.8136383
0.47909495 0.30577052 1.812564
0.47935429 0.30920807 1.8135451
0.48226881 0.31551826 1.8122017
0.48272374 0.31908858 1.8139112
0.48568243 0.322153 1.8127391
0.48919314 0.3255834 1.8136294
0.46653423 0.23408559 1.814588
0.46669203 0.23743981 1.8152018
0.46686727 0.24080522 1.8158833
0.46976036 0.26352412 1.8144034
0.46997514 0.26691967 1.815233
0.47016641 0.27030474 1.8159717
0.47308642 0.28319708 1.8146046
0.47332859 0.28661767 1.8155335
