# .PCD v0.7 - Point Cloud Data file format
VERSION 0.7
FIELDS x y z
SIZE 4 4 4
TYPE F F F
COUNT 1 1 1
WIDTH 172
HEIGHT 1
VIEWPOINT 0 0 0 1 0 0 0
POINTS 172
DATA ascii
-0.24889614 0.49906865 1.4148908
-0.26852047 0.49740195 1.4174157
-0.2649743 0.49794686 1.4189686
-0.25186795 0.49734333 1.4172487
-0.24751689 0.49801469 1.4167356
-0.26718724 0.49455333 1.4239403
-0.26204818 0.49455172 1.4239357
-0.25690991 0.49455157 1.4239352
-0.25177163 0.49455142 1.4239348
-0.24663308 0.4945507 1.4239328
-0.24149424 0.49454939 1.423929
-0.23643756 0.49471897 1.4244173
-0.23250255 0.4945496 1.4239296
-0.22993365 0.49455002 1.4239308
-0.27040347 0.49595326 1.4205914
-0.26655811 0.49595183 1.4205873
-0.26160043 0.496272 1.4215043
-0.25641686 0.49616626 1.4212015
-0.25246057 0.49595043 1.4205832
-0.24743539 0.49615493 1.4211692
-0.23203014 0.49610862 1.4210364
-0.22970036 0.49661475 1.4224861
-0.28345162 0.49346256 1.4282191
-0.27851886 0.49385616 1.4293582
-0.27304047 0.4932754 1.4276773
-0.26781946 0.49314833 1.4273095
-0.26266819 0.49314666 1.4273047
-0.25751752 0.49314606 1.427303
-0.25236714 0.493146 1.4273028
-0.24721643 0.49314526 1.4273007
-0.24206543 0.49314392 1.4272968
-0.23691463 0.49314296 1.427294
-0.23176444 0.4931432 1.4272947
-0.27153045 0.49544656 1.4265121
-0.28523394 0.49173817 1.4306991
-0.28115308 0.49126425 1.4318296
-0.27706632 0.49079075 1.4329615
-0.27264866 0.4910273 1.4323949
-0.26747966 0.49102673 1.4323933
-0.26231027 0.49102551 1.4323897
-0.25790128 0.49126098 1.43182
-0.25326604 0.49102449 1.4323868
-0.24809699 0.49102372 1.4323845
-0.24292766 0.49102244 1.4323808
-0.23775873 0.49102193 1.4323792
-0.23258974 0.49102128 1.4323773
-0.22808868 0.4911027 1.4338704
-0.2814045 0.48889166 1.4375093
-0.27751392 0.48889133 1.4375083
-0.2723268 0.48889145 1.4375086
-0.26713961 0.48889142 1.4375086
-0.26195207 0.48889077 1.4375066
-0.25676426 0.48888952 1.437503
-0.25157696 0.48888928 1.4375023
-0.24638924 0.48888814 1.4374988
-0.24249865 0.48888767 1.4374975
-0.23860806 0.48888719 1.4374962
-0.23342037 0.488886 1.4374926
-0.22823277 0.48888496 1.4374895
-0.2230456 0.48888484 1.4374893
-0.21795356 0.48909944 1.4381202
-0.22278385 0.49090123 1.4358011
-0.21881169 0.4907079 1.4352356
-0.29056925 0.48601943 1.444389
-0.28617337 0.48679808 1.4441231
-0.28165817 0.48650026 1.4432427
-0.27796438 0.48697957 1.4420916
-0.27330363 0.48673916 1.4426647
-0.26809761 0.48673877 1.4426637
-0.26289171 0.48673856 1.442663
-0.2576856 0.48673788 1.442661
-0.25247949 0.48673728 1.4426593
-0.24727327 0.48673633 1.4426565
-0.2420671 0.48673552 1.4426541
-0.23686093 0.48673463 1.4426515
-0.23165491 0.48673409 1.4426497
-0.22697251 0.48649374 1.4432234
-0.22332238 0.48697296 1.442072
-0.29126668 0.48457372 1.4478558
-0.28734827 0.48457372 1.4478558
-0.28212368 0.48457357 1.4478555
-0.27689904 0.48457333 1.4478548
-0.27167439 0.4845731 1.447854
-0.26644975 0.48457286 1.4478533
-0.26253119 0.48457247 1.4478521
-0.2586126 0.48457208 1.4478509
-0.25338775 0.48457146 1.447849
-0.2481629 0.48457071 1.4478469
-0.24293813 0.48457015 1.4478451
-0.23771322 0.48456925 1.4478424
-0.23248827 0.48456824 1.4478395
-0.22726336 0.48456728 1.4478366
-0.2233447 0.48456657 1.4478345
-0.28314233 0.48238909 1.453083
-0.27789885 0.48238885 1.4530823
-0.27265531 0.48238862 1.4530817
-0.26741186 0.48238838 1.453081
-0.26216838 0.4823882 1.4530804
-0.25692499 0.48238823 1.4530805
-0.25168145 0.4823879 1.4530795
-0.24697311 0.48214397 1.453661
-0.24250343 0.4823868 1.4530761
-0.23803891 0.48262939 1.4524908
-0.23332846 0.4823854 1.453072
-0.22808468 0.48238441 1.453069
-0.22284091 0.48238346 1.4530661
-0.21768324 0.48257449 1.45364
-0.28557816 0.48035035 1.4588298
-0.28153628 0.4801904 1.458344
-0.27758947 0.48019031 1.4583437
-0.27364263 0.48019022 1.4583434
-0.26838022 0.4801901 1.458343
-0.26311803 0.4801904 1.458344
-0.25785577 0.48019055 1.4583445
-0.25259316 0.4801901 1.4583431
-0.24733046 0.48018944 1.4583411
-0.24206796 0.48018917 1.4583403
-0.23680533 0.48018861 1.4583385
-0.23154283 0.48018825 1.4583375
-0.22759596 0.48018798 1.4583367
-0.22496471 0.48018783 1.4583362
-0.28749388 0.47871685 1.4618793
-0.28221792 0.47871545 1.4618748
-0.27694273 0.4787153 1.4618744
-0.27166772 0.47871545 1.4618748
-0.26639283 0.47871584 1.4618759
-0.26243684 0.47871646 1.4618779
-0.25848004 0.4787156 1.4618752
-0.25320494 0.4787156 1.4618753
-0.24792919 0.47871432 1.4618714
-0.2426542 0.47871453 1.4618721
-0.2373789 0.47871411 1.4618707
-0.23210345 0.47871339 1.4618685
-0.22682819 0.47871298 1.4618673
-0.28819185 0.47723511 1.4654282
-0.28290302 0.47723362 1.4654236
-0.27739859 0.47673726 1.4666123
-0.2726588 0.47648948 1.4672079
-0.26736492 0.47649032 1.4672105
-0.26207033 0.47648987 1.4672091
-0.25677544 0.47648889 1.4672061
-0.25202382 0.47624111 1.4678016
-0.24750808 0.47648764 1.4672023
-0.24299836 0.47673544 1.4666067
-0.23824458 0.47648755 1.4672019
-0.23295018 0.47648743 1.4672015
-0.22765549 0.47648662 1.4671991
-0.22395612 0.47574112 1.4689791
-0.27365655 0.47424942 1.4725769
-0.26834327 0.47425026 1.4725795
-0.2630285 0.47424838 1.4725736
-0.25771457 0.47424796 1.4725723
-0.25240135 0.47424883 1.4725749
-0.24708645 0.47424656 1.472568
-0.24177235 0.47424576 1.4725654
-0.23645875 0.47424591 1.4725659
-0.23247369 0.47424632 1.4725672
-0.2271594 0.47424504 1.4725633
-0.22450216 0.47424421 1.4725606
-0.22164947 0.47647998 1.4712605
-0.27676994 0.47224125 1.4773813
-0.27166289 0.4727467 1.4761807
-0.26633555 0.4727456 1.4761773
-0.26132604 0.47198814 1.4779806
-0.25811097 0.47224078 1.4773798
-0.25332886 0.47198999 1.4779863
-0.24833833 0.47223982 1.4773769
-0.24266066 0.47198668 1.4779758
-0.23866066 0.47198647 1.4779752
-0.2609522 0.46971399 1.4834255
-0.25693834 0.46971536 1.4834299
-0.23954053 0.46971357 1.4834242
