# .PCD v0.7 - Point Cloud Data file format
VERSION 0.7
FIELDS x y z
SIZE 4 4 4
TYPE F F F
COUNT 1 1 1
WIDTH 411
HEIGHT 1
VIEWPOINT 0 0 0 1 0 0 0
POINTS 411
DATA ascii
-0.24889614 0.49906865 1.4148908
-0.24648613 0.49935791 1.4157108
-0.26982987 0.49745885 1.4175779
-0.26721108 0.49734506 1.4172536
-0.25186795 0.49734333 1.4172487
-0.24931078 0.49734303 1.4172479
-0.24675377 0.49734309 1.417248
-0.2649743 0.49794686 1.4189686
-0.27040347 0.49595326 1.4205914
-0.26783988 0.49595231 1.4205886
-0.26527631 0.49595135 1.4205859
-0.25246057 0.49595043 1.4205832
-0.24989736 0.49595016 1.4205824
-0.24733418 0.49594989 1.4205817
-0.26281646 0.49614617 1.4211439
-0.26038438 0.49639782 1.4218647
-0.25773883 0.49624342 1.4214225
-0.25509492 0.4960891 1.4209805
-0.23203014 0.49610862 1.4210364
-0.26847205 0.4945538 1.4239416
-0.26590246 0.49455288 1.423939
-0.2633329 0.49455202 1.4239365
-0.2607635 0.49455142 1.4239348
-0.25819442 0.49455151 1.4239351
-0.2556254 0.49455163 1.4239354
-0.25305629 0.4945516 1.4239353
-0.250487 0.49455127 1.4239343
-0.24791774 0.49455094 1.4239334
-0.24534842 0.4945505 1.4239321
-0.24277896 0.49454975 1.4239299
-0.24020953 0.49454904 1.4239279
-0.23507136 0.49454904 1.4239279
-0.23250255 0.4945496 1.4239296
-0.22993365 0.49455002 1.4239308
-0.24507464 0.49656484 1.4223431
-0.22970036 0.49661475 1.4224861
-0.23780376 0.4948889 1.4249065
-0.28204238 0.49325219 1.4276102
-0.27168259 0.49314898 1.4273114
-0.26910725 0.49314868 1.4273106
-0.26653168 0.493148 1.4273086
-0.26395601 0.49314708 1.4273059
-0.26138037 0.49314621 1.4273034
-0.2588051 0.493146 1.4273028
-0.25622997 0.49314609 1.4273031
-0.25365484 0.49314618 1.4273033
-0.25107947 0.49314585 1.4273024
-0.24850415 0.49314553 1.4273014
-0.2459287 0.49314499 1.4272999
-0.24335319 0.49314427 1.4272978
-0.24077766 0.49314356 1.4272957
-0.23820226 0.49314305 1.4272943
-0.23562703 0.49314287 1.4272938
-0.2330519 0.49314296 1.427294
-0.23047698 0.49314347 1.4272954
-0.27153045 0.49544656 1.4265121
-0.28486088 0.49367294 1.4288279
-0.27969465 0.49365461 1.4287748
-0.27439839 0.4934018 1.4280431
-0.27734309 0.49405771 1.4299415
-0.28523394 0.49173817 1.4306991
-0.28265244 0.49173778 1.430698
-0.28007093 0.49173743 1.430697
-0.27748942 0.49173704 1.4306959
-0.27490813 0.4917371 1.430696
-0.27232665 0.49173677 1.4306951
-0.2697452 0.49173647 1.4306942
-0.26716375 0.4917362 1.4306934
-0.2645821 0.49173555 1.4306915
-0.26200035 0.49173462 1.4306889
-0.25941864 0.49173385 1.4306866
-0.2568374 0.49173394 1.4306868
-0.25425616 0.49173403 1.4306871
-0.25167477 0.49173376 1.4306864
-0.24909332 0.49173343 1.4306854
-0.24651176 0.49173287 1.4306837
-0.24393012 0.49173212 1.4306816
-0.24134851 0.49173144 1.4306796
-0.23876715 0.49173129 1.4306791
-0.2361858 0.49173111 1.4306786
-0.23360445 0.4917309 1.430678
-0.23102301 0.49173054 1.4306769
-0.22874571 0.49238482 1.4325806
-0.28073588 0.49031752 1.4340938
-0.27814847 0.49031755 1.434094
-0.27556109 0.49031764 1.4340942
-0.27297369 0.49031767 1.4340943
-0.27038622 0.49031758 1.4340941
-0.26779863 0.49031731 1.4340932
-0.26521105 0.49031699 1.4340923
-0.26262328 0.49031636 1.4340905
-0.2600354 0.49031547 1.4340879
-0.25744775 0.49031508 1.4340867
-0.25486037 0.49031514 1.4340869
-0.25227287 0.49031499 1.4340864
-0.2496853 0.49031466 1.4340855
-0.24709758 0.49031404 1.4340837
-0.2445098 0.49031332 1.4340816
-0.2419222 0.4903129 1.4340804
-0.23933472 0.49031276 1.4340799
-0.23674724 0.49031258 1.4340794
-0.2341596 0.4903121 1.434078
-0.23157193 0.49031153 1.4340763
-0.22898425 0.49031091 1.4340745
-0.22653607 0.49061239 1.4349563
-0.22410837 0.49096572 1.4359897
-0.22145933 0.49083677 1.4356126
-0.21881169 0.4907079 1.4352356
-0.2814045 0.48889166 1.4375093
-0.27881071 0.48889133 1.4375083
-0.27621713 0.48889133 1.4375083
-0.27362359 0.48889142 1.4375086
-0.27103001 0.48889148 1.4375087
-0.26843646 0.48889154 1.4375089
-0.26584277 0.48889133 1.4375083
-0.26324901 0.48889104 1.4375074
-0.26065513 0.48889047 1.4375057
-0.25806108 0.48888958 1.4375031
-0.25546744 0.48888949 1.4375029
-0.25287384 0.48888946 1.4375027
-0.25028011 0.48888913 1.4375018
-0.24768618 0.48888844 1.4374998
-0.2450923 0.48888782 1.437498
-0.24249865 0.48888767 1.4374975
-0.23990498 0.48888746 1.4374969
-0.23731115 0.48888692 1.4374954
-0.23471731 0.48888633 1.4374936
-0.23212345 0.4888857 1.4374918
-0.2295296 0.4888851 1.43749
-0.22693592 0.48888481 1.4374892
-0.22434232 0.48888469 1.4374888
-0.22174889 0.48888499 1.4374896
-0.21915542 0.48888513 1.4374901
-0.21675172 0.48931375 1.4387504
-0.28207672 0.48745975 1.4409432
-0.27947673 0.48745939 1.4409422
-0.27687675 0.48745906 1.4409412
-0.27427676 0.48745871 1.4409401
-0.27167681 0.48745838 1.4409392
-0.26907706 0.48745847 1.4409394
-0.26647735 0.48745856 1.4409397
-0.26387757 0.48745856 1.4409397
-0.26127762 0.48745826 1.4409388
-0.25867754 0.48745769 1.4409372
-0.25607744 0.48745707 1.4409353
-0.25347769 0.4874571 1.4409354
-0.25087774 0.48745674 1.4409343
-0.24827759 0.48745599 1.4409322
-0.24567768 0.48745573 1.4409313
-0.24307781 0.48745552 1.4409307
-0.24047776 0.48745492 1.4409289
-0.23787771 0.48745432 1.4409271
-0.23527768 0.48745376 1.4409255
-0.2326778 0.48745352 1.4409248
-0.23007794 0.48745325 1.440924
-0.22747807 0.48745301 1.4409233
-0.22487824 0.48745283 1.4409227
-0.22227848 0.48745278 1.4409226
-0.28519818 0.48835304 1.4435838
-0.29056925 0.48601943 1.444389
-0.28796393 0.48602054 1.4443923
-0.28535801 0.48602074 1.4443929
-0.28275195 0.48602062 1.4443926
-0.28014588 0.48602051 1.4443922
-0.27753973 0.48602027 1.4443915
-0.27493352 0.48601991 1.4443904
-0.27232733 0.48601958 1.4443895
-0.26972112 0.48601922 1.4443884
-0.26711494 0.48601887 1.4443873
-0.26450881 0.48601866 1.4443867
-0.26190287 0.48601875 1.444387
-0.25929683 0.48601866 1.4443867
-0.25669053 0.48601815 1.4443852
-0.25408438 0.48601782 1.4443842
-0.2514782 0.48601747 1.4443831
-0.24887197 0.48601699 1.4443817
-0.24626581 0.48601666 1.4443808
-0.24365953 0.48601606 1.444379
-0.24105331 0.48601562 1.4443777
-0.23844722 0.48601538 1.4443769
-0.23584113 0.48601514 1.4443762
-0.23323503 0.4860149 1.4443755
-0.23062894 0.48601466 1.4443748
-0.22802283 0.48601437 1.444374
-0.22541662 0.48601386 1.4443724
-0.22281042 0.48601335 1.444371
-0.29126668 0.48457372 1.4478558
-0.28865442 0.48457372 1.4478558
-0.28604215 0.48457372 1.4478558
-0.28342986 0.48457363 1.4478556
-0.28081754 0.48457351 1.4478552
-0.27820522 0.48457339 1.4478549
-0.27559289 0.48457327 1.4478545
-0.27298057 0.48457316 1.4478542
-0.27036825 0.48457304 1.4478538
-0.26775593 0.48457292 1.4478534
-0.2651436 0.4845728 1.4478531
-0.26253119 0.48457247 1.4478521
-0.25991875 0.48457211 1.4478511
-0.25730646 0.48457205 1.4478508
-0.25469398 0.48457164 1.4478496
-0.25208154 0.48457128 1.4478486
-0.2494691 0.48457089 1.4478474
-0.24685669 0.48457053 1.4478463
-0.24424432 0.48457029 1.4478456
-0.24163193 0.48456997 1.4478446
-0.23901945 0.48456949 1.4478432
-0.23640697 0.48456898 1.4478416
-0.2337945 0.48456848 1.4478402
-0.23118204 0.484568 1.4478388
-0.2285696 0.48456752 1.4478374
-0.22595714 0.48456705 1.4478359
-0.2233447 0.48456657 1.4478345
-0.28411102 0.48311967 1.4513352
-0.28149241 0.48311955 1.4513348
-0.27887383 0.48311943 1.4513345
-0.27625522 0.48311931 1.4513341
-0.27363661 0.48311919 1.4513338
-0.27101803 0.48311907 1.4513334
-0.26839942 0.48311895 1.451333
-0.26578084 0.48311883 1.4513327
-0.26316223 0.48311871 1.4513323
-0.26054364 0.48311859 1.451332
-0.25792503 0.48311847 1.4513316
-0.25530648 0.48311839 1.4513314
-0.2526879 0.48311833 1.4513311
-0.25006923 0.48311803 1.4513303
-0.24745044 0.48311752 1.4513288
-0.24483168 0.48311704 1.4513273
-0.24221292 0.48311657 1.4513259
-0.23959416 0.48311609 1.4513245
-0.23697539 0.48311558 1.4513229
-0.23435666 0.48311511 1.4513215
-0.23173791 0.48311463 1.4513201
-0.22911918 0.48311415 1.4513186
-0.22650044 0.48311365 1.4513171
-0.22388171 0.48311317 1.4513156
-0.22126301 0.48311272 1.4513143
-0.21871758 0.48327416 1.4517993
-0.21629627 0.48371711 1.45313
-0.28479543 0.48165864 1.4548314
-0.2821705 0.48165852 1.454831
-0.27954561 0.4816584 1.4548306
-0.27692071 0.48165828 1.4548303
-0.27429578 0.48165816 1.4548299
-0.27167088 0.48165804 1.4548296
-0.26904601 0.48165795 1.4548293
-0.26642111 0.48165789 1.4548291
-0.26379624 0.4816578 1.4548289
-0.2611714 0.4816578 1.4548289
-0.25854662 0.48165792 1.4548292
-0.25592187 0.48165807 1.4548297
-0.25329691 0.48165789 1.4548291
-0.2506718 0.48165736 1.4548275
-0.24804698 0.48165736 1.4548275
-0.24542196 0.481657 1.4548265
-0.24279705 0.48165685 1.454826
-0.24017212 0.48165667 1.4548254
-0.2375472 0.48165649 1.4548249
-0.2349222 0.48165613 1.4548239
-0.23229712 0.48165563 1.4548223
-0.22967207 0.48165515 1.4548209
-0.22704703 0.48165467 1.4548194
-0.22442196 0.48165417 1.4548179
-0.22179694 0.48165375 1.4548166
-0.21917206 0.48165357 1.4548161
-0.21654707 0.48165318 1.4548149
-0.28557816 0.48035035 1.4588298
-0.2828519 0.48019043 1.4583441
-0.28022066 0.48019037 1.4583439
-0.27758947 0.48019031 1.4583437
-0.27495825 0.48019025 1.4583435
-0.27232701 0.48019016 1.4583433
-0.26969579 0.48019007 1.458343
-0.26706463 0.48019013 1.4583431
-0.26443353 0.48019028 1.4583436
-0.26180249 0.48019052 1.4583443
-0.25917161 0.48019102 1.4583459
-0.25653991 0.48019007 1.458343
-0.25390905 0.48019066 1.4583448
-0.25127727 0.48018956 1.4583415
-0.24864598 0.48018932 1.4583408
-0.24601495 0.48018959 1.4583416
-0.24338366 0.48018938 1.4583409
-0.24075228 0.48018897 1.4583397
-0.23812096 0.48018867 1.4583387
-0.23548971 0.48018852 1.4583383
-0.23285846 0.48018834 1.4583378
-0.2302272 0.48018816 1.4583372
-0.22759596 0.48018798 1.4583367
-0.22496471 0.48018783 1.4583362
-0.28881305 0.47871751 1.4618812
-0.28617471 0.47871622 1.4618772
-0.28353673 0.47871548 1.461875
-0.28089914 0.47871542 1.4618747
-0.27826154 0.47871533 1.4618745
-0.27562395 0.47871524 1.4618742
-0.27298644 0.47871536 1.4618746
-0.270349 0.47871554 1.4618751
-0.26771152 0.47871569 1.4618756
-0.26507413 0.47871596 1.4618764
-0.26243684 0.47871646 1.4618779
-0.25979915 0.47871622 1.4618772
-0.25716093 0.47871494 1.4618733
-0.2545239 0.47871593 1.4618763
-0.25188601 0.4787153 1.4618744
-0.24924803 0.47871447 1.4618719
-0.24661033 0.47871417 1.4618709
-0.24397293 0.47871444 1.4618717
-0.24133548 0.47871464 1.4618723
-0.23869775 0.47871429 1.4618713
-0.23606002 0.4787139 1.4618701
-0.23342228 0.47871351 1.4618689
-0.23078462 0.47871327 1.4618682
-0.228147 0.47871307 1.4618676
-0.22550939 0.47871292 1.4618671
-0.28951409 0.47723559 1.4654297
-0.28686959 0.47723463 1.4654268
-0.2842252 0.47723395 1.4654247
-0.28158087 0.47723329 1.4654226
-0.27893698 0.47723344 1.4654231
-0.27629313 0.47723359 1.4654236
-0.27364928 0.47723374 1.4654241
-0.27100539 0.47723392 1.4654245
-0.26836163 0.47723424 1.4654256
-0.26571795 0.47723475 1.4654272
-0.26307428 0.47723526 1.4654287
-0.26042962 0.47723398 1.4654248
-0.25778511 0.47723296 1.4654217
-0.25514171 0.47723398 1.4654248
-0.2524977 0.47723392 1.4654245
-0.24985309 0.47723264 1.4654206
-0.24720892 0.47723219 1.4654193
-0.2445648 0.47723183 1.4654182
-0.24192099 0.47723213 1.4654191
-0.23927718 0.4772324 1.4654199
-0.23663324 0.4772324 1.4654199
-0.23398909 0.47723201 1.4654187
-0.23134497 0.47723162 1.4654175
-0.22870083 0.47723123 1.4654163
-0.22605671 0.47723085 1.4654151
-0.27696565 0.47574478 1.4689904
-0.27431533 0.47574496 1.4689909
-0.27166519 0.47574538 1.4689922
-0.26901507 0.47574589 1.4689938
-0.26636496 0.47574639 1.4689953
-0.26371425 0.4757458 1.4689935
-0.26106313 0.47574449 1.4689895
-0.25841239 0.47574383 1.4689875
-0.25576258 0.47574487 1.4689907
-0.25311241 0.47574529 1.468992
-0.25046137 0.47574407 1.4689882
-0.24781044 0.47574303 1.468985
-0.24515988 0.47574267 1.4689839
-0.24250934 0.47574237 1.4689829
-0.23985906 0.47574255 1.4689835
-0.23720881 0.47574282 1.4689844
-0.2345586 0.47574314 1.4689853
-0.2319081 0.47574291 1.4689846
-0.22925754 0.47574252 1.4689834
-0.22660685 0.47574186 1.4689814
-0.22395612 0.47574112 1.4689791
-0.22164947 0.47647998 1.4712605
-0.27498484 0.47424918 1.4725761
-0.27232826 0.47424969 1.4725777
-0.26967168 0.4742502 1.4725792
-0.26701489 0.47425035 1.4725797
-0.2643573 0.47424904 1.4725757
-0.26169974 0.47424772 1.4725716
-0.25904274 0.47424746 1.4725708
-0.25638643 0.47424847 1.4725739
-0.25373012 0.47424945 1.472577
-0.25107259 0.4742482 1.472573
-0.24841505 0.47424692 1.4725691
-0.24575785 0.47424623 1.472567
-0.24310085 0.47424594 1.472566
-0.24044384 0.47424558 1.4725649
-0.2377871 0.47424579 1.4725655
-0.2351304 0.47424605 1.4725664
-0.23247369 0.47424632 1.4725672
-0.2271594 0.47424504 1.4725633
-0.22450216 0.47424421 1.4725606
-0.27832031 0.47274506 1.4761755
-0.275657 0.47274509 1.4761757
-0.27299425 0.47274616 1.476179
-0.2703315 0.47274724 1.4761823
-0.26766759 0.47274625 1.4761794
-0.26500353 0.47274497 1.4761753
-0.26233944 0.47274366 1.4761713
-0.25967613 0.47274375 1.4761715
-0.25701335 0.47274479 1.4761747
-0.25435057 0.47274581 1.4761779
-0.25168681 0.47274506 1.4761755
-0.24902277 0.47274375 1.4761715
-0.24635877 0.4727425 1.4761676
-0.24369526 0.47274217 1.4761666
-0.24103175 0.47274184 1.4761655
-0.23836827 0.47274154 1.4761646
-0.2763325 0.47123367 1.4797931
-0.26031265 0.47123265 1.4797899
-0.25764337 0.47123373 1.4797932
-0.25497404 0.47123474 1.4797964
-0.25230402 0.47123447 1.4797956
-0.24963346 0.47123322 1.4797916
-0.24429272 0.47123131 1.4797857
-0.24162288 0.47123137 1.4797858
-0.23895304 0.4712314 1.4797859
-0.2609522 0.46971399 1.4834255
-0.25827625 0.46971485 1.4834282
-0.25560039 0.46971589 1.4834316
-0.23954053 0.46971357 1.4834242
