# .PCD v0.7 - Point Cloud Data file format
VERSION 0.7
FIELDS x y z
SIZE 4 4 4
TYPE F F F
COUNT 1 1 1
WIDTH 1463
HEIGHT 1
VIEWPOINT 0 0 0 1 0 0 0
POINTS 1463
DATA ascii
-0.55648482 0.33149093 1.6627187
-0.55924129 0.37182823 1.6619954
-0.55954933 0.37803352 1.6629106
-0.55978042 0.38269171 1.6635975
-0.56008947 0.38890931 1.6645159
-0.55993479 0.38579959 1.6640563
-0.56542891 0.3944504 1.662555
-0.56024361 0.39202031 1.664974
-0.57231611 0.30793911 1.6651385
-0.56803668 0.30806231 1.6658046
-0.56232572 0.30822676 1.6666939
-0.55660886 0.30839151 1.6675847
-0.55480039 0.31273323 1.6666706
-0.55502898 0.31737432 1.6673573
-0.5552578 0.32201964 1.6680448
-0.55556321 0.32821912 1.6689621
-0.55856514 0.37338069 1.6689346
-0.55879724 0.37805417 1.6696279
-0.57679236 0.3065154 1.6737695
-0.5724929 0.30663866 1.6744425
-0.56962454 0.30672091 1.6748916
-0.55387384 0.30938455 1.6729546
-0.5540272 0.31248945 1.6734178
-0.55425739 0.31715021 1.674113
-0.55448771 0.32181442 1.6748089
-0.56155634 0.36984235 1.673362
-0.55902874 0.38273144 1.6703196
-0.55925953 0.38741159 1.6710093
-0.55941361 0.39053401 1.6714696
-0.55316925 0.31068408 1.6799816
-0.55464143 0.3249262 1.6752732
-0.55479521 0.32803968 1.6757376
-0.55696917 0.33448362 1.6777296
-0.5549491 0.33115491 1.6762024
-0.56772482 0.36788568 1.6782087
-0.56315124 0.36786491 1.6781139
-0.5585776 0.36784378 1.6780176
-0.55772895 0.3718195 1.6754682
-0.55803704 0.37807408 1.6763937
-0.55826837 0.38276935 1.6770886
-0.55849981 0.38746893 1.677784
-0.55332327 0.31380251 1.6804495
-0.55347747 0.31692272 1.6809177
-0.55370891 0.32160646 1.6816205
-0.55401772 0.32785726 1.6825584
-0.55424935 0.3325496 1.6832619
-0.56185323 0.33863029 1.6832952
-0.55698407 0.33843991 1.682349
-0.55448067 0.337246 1.6839644
-0.55472398 0.34195316 1.6847035
-0.5682832 0.36315423 1.6843508
-0.56215477 0.36312157 1.6841993
-0.55749792 0.36305723 1.683901
-0.56724 0.36552095 1.681259
-0.56265754 0.36549991 1.6811621
-0.55768675 0.36656687 1.6814175
-0.55703747 0.37338227 1.6825103
-0.55726933 0.37809283 1.6832106
-0.55750144 0.38280773 1.6839117
-0.57140028 0.30931804 1.6890736
-0.56861293 0.3094596 1.6898466
-0.55268991 0.31669307 1.6877739
-0.55299926 0.32296395 1.6887186
-0.55323094 0.32767123 1.6894262
-0.55338544 0.33081168 1.6898979
-0.5677346 0.34246725 1.6872363
-0.56285131 0.34227431 1.6862856
-0.55797303 0.34208155 1.685336
-0.56804228 0.34722176 1.6881506
-0.5632751 0.34709936 1.6875556
-0.55692381 0.34693623 1.6867626
-0.57131547 0.35345346 1.6888227
-0.56713408 0.35287198 1.6884693
-0.56287956 0.35376644 1.6878916
-0.55712706 0.35315144 1.6873782
-0.57078516 0.35769203 1.6872553
-0.56765854 0.35764009 1.6870102
-0.5629704 0.35756221 1.6866429
-0.55688506 0.35756302 1.6866467
-0.57038277 0.36048192 1.6860658
-0.56725842 0.36042958 1.6858211
-0.56257367 0.36035115 1.6854541
-0.55644339 0.36166421 1.6868473
-0.55595362 0.3670817 1.6884378
-0.55618602 0.37180674 1.6891435
-0.55641854 0.37653527 1.6898497
-0.5658232 0.30960137 1.6906208
-0.56163341 0.30981427 1.6917834
-0.55749655 0.31005973 1.6931237
-0.55353975 0.33395374 1.6903691
-0.55369419 0.33709756 1.6908407
-0.55392635 0.34181699 1.6915495
-0.55423713 0.3481161 1.6924989
-0.55446959 0.3528443 1.6932087
-0.55470276 0.3575772 1.6939206
-0.55493647 0.36231387 1.6946343
-0.55657363 0.37968996 1.6903208
-0.5567289 0.38284644 1.6907923
-0.55205011 0.31960797 1.6951599
-0.55220455 0.32275668 1.6956341
-0.55243641 0.3274833 1.696346
-0.55266845 0.33221343 1.6970586
-0.55290067 0.33694798 1.6977717
-0.55321205 0.34326756 1.6987278
-0.55344629 0.34801194 1.6994472
-0.55360252 0.35117722 1.6999269
-0.55517054 0.36705512 1.6953492
-0.55548322 0.37338287 1.6963038
-0.55571663 0.37813225 1.6970168
-0.55587226 0.38130081 1.697492
-0.57566398 0.3085559 1.7016772
-0.57285798 0.30869827 1.7024623
-0.56840426 0.30878174 1.7029228
-0.56223094 0.30876616 1.7028368
-0.55760121 0.30875438 1.7027718
-0.55685616 0.31294417 1.7004966
-0.55186772 0.3320432 1.7040405
-0.55210084 0.33679688 1.7047603
-0.55375791 0.35434371 1.700404
-0.55391377 0.35751224 1.7008827
-0.55414814 0.36226881 1.7016022
-0.55438268 0.36702898 1.7023225
-0.5546174 0.37179363 1.7030432
-0.56766027 0.30388334 1.7099367
-0.56301057 0.30387145 1.7098699
-0.55836111 0.30385947 1.7098024
-0.57267296 0.30634922 1.7064874
-0.56803304 0.30633759 1.7064227
-0.56339347 0.30632591 1.7063576
-0.55679864 0.30739424 1.7065898
-0.55605525 0.3126848 1.7074583
-0.55628908 0.31743941 1.7081764
-0.55225724 0.33996895 1.7052432
-0.5524137 0.34314278 1.7057264
-0.55264854 0.34790713 1.7064517
-0.55288363 0.35267508 1.7071774
-0.55311847 0.35744724 1.7079024
-0.55335331 0.36222291 1.7086277
-0.57540959 0.30390266 1.7100455
-0.57206661 0.30225196 1.7123547
-0.56728542 0.30141869 1.7134638
-0.562626 0.30140677 1.7133961
-0.55796689 0.30139485 1.7133284
-0.55485857 0.30293116 1.7132757
-0.55501348 0.30765373 1.7137539
-0.55524778 0.31242377 1.7144773
-0.57280397 0.29802263 1.7176529
-0.5671736 0.29753253 1.7178066
-0.5624547 0.2974956 1.7175932
-0.55773717 0.29745865 1.71738
-0.55372679 0.29780287 1.7193594
-0.55548221 0.31719738 1.7152013
-0.55571693 0.32197547 1.7159259
-0.55185449 0.32243267 1.7183613
-0.55603009 0.32835227 1.716893
-0.55368716 0.32724926 1.7192364
-0.57197326 0.29220322 1.7229319
-0.56815487 0.2926223 1.7223486
-0.56250864 0.29213038 1.7225028
-0.5568608 0.29163888 1.7226583
-0.55422276 0.29341203 1.7208995
-0.55396247 0.30258456 1.7200913
-0.55419862 0.3073709 1.7208245
-0.55443364 0.3121601 1.7215543
-0.55363417 0.31747237 1.7222885
-0.5470013 0.31856614 1.7226026
-0.54238439 0.31859255 1.7227455
-0.53960544 0.31878707 1.7237973
-0.54665512 0.32302448 1.7215148
-0.54258066 0.32181719 1.7233689
-0.55110943 0.32756081 1.7208731
-0.54723305 0.32802933 1.7233346
-0.54296345 0.32515576 1.7245847
-0.55298311 0.33241218 1.7218757
-0.54910856 0.33288789 1.72434
-0.55486137 0.33726865 1.7228824
-0.57163966 0.28815624 1.7266157
-0.56730866 0.28677028 1.7276565
-0.56256282 0.28673449 1.7274408
-0.55781901 0.28669909 1.7272276
-0.55307615 0.28666368 1.7270143
-0.55266881 0.29268116 1.7257423
-0.55290425 0.29747808 1.7264776
-0.55314076 0.30227995 1.727216
-0.55337727 0.30708542 1.7279546
-0.55361283 0.31189474 1.72869
-0.55170703 0.31637439 1.7276058
-0.54707712 0.31640071 1.7277496
-0.54244632 0.31642705 1.7278934
-0.53739643 0.31776363 1.7266927
-0.53303003 0.31794748 1.7276876
-0.52765155 0.31763089 1.7287889
-0.53867966 0.32227409 1.7258158
-0.53326952 0.32276875 1.7284646
-0.54148799 0.32759288 1.7264957
-0.5369823 0.32697222 1.7287034
-0.54651898 0.33320585 1.725987
-0.54243219 0.33200639 1.7278507
-0.54411727 0.33520117 1.7282495
-0.55592835 0.34258911 1.7261953
-0.55616546 0.34740868 1.7269317
-0.5564025 0.35223261 1.7276678
-0.56779057 0.27998489 1.7338876
-0.56302822 0.27995011 1.7336721
-0.55668032 0.27990386 1.7333858
-0.55192077 0.27986917 1.733171
-0.57055044 0.28136623 1.7327687
-0.56696302 0.28270057 1.7313604
-0.56220758 0.28266546 1.7311454
-0.55745351 0.28263047 1.7309312
-0.55282593 0.28265971 1.7311103
-0.55160284 0.28752124 1.7321726
-0.55183876 0.29233387 1.7329135
-0.55207497 0.29715103 1.7336552
-0.55231214 0.30197236 1.7343999
-0.55247027 0.30518895 1.7348965
-0.55179715 0.31419611 1.7327828
-0.54715335 0.31422234 1.7329276
-0.54250872 0.31424859 1.7330722
-0.53786343 0.31427491 1.7332172
-0.53166914 0.31431031 1.7334125
-0.52702254 0.3143369 1.7335591
-0.52237511 0.31436348 1.7337059
-0.51772696 0.31439009 1.7338526
-0.51307797 0.31441671 1.7339993
-0.52602357 0.31998467 1.7302732
-0.52151406 0.31696844 1.7308497
-0.51738429 0.31730819 1.7327049
-0.51462585 0.3175351 1.7339441
-0.52778494 0.32322958 1.7309325
-0.5220921 0.3220098 1.7327683
-0.51776665 0.3206712 1.7339855
-0.53542811 0.32937413 1.7303996
-0.53248972 0.32792678 1.7309966
-0.52876377 0.32767764 1.732433
-0.52404964 0.32694441 1.7340715
-0.53717655 0.33261263 1.7310057
-0.53170687 0.33309907 1.7335372
-0.52719134 0.33008122 1.7341144
-0.55495346 0.33922505 1.7328763
-0.55511189 0.34244928 1.733371
-0.55534935 0.34728914 1.7341126
-0.55558616 0.35213205 1.734852
-0.56786191 0.27451885 1.7388954
-0.56157243 0.27451167 1.7388501
-0.55687398 0.27451536 1.7388734
-0.5521754 0.27451903 1.7388967
-0.56703067 0.27724975 1.7363501
-0.56226164 0.27721533 1.7361345
-0.55749393 0.27718097 1.7359191
-0.55151004 0.27732229 1.7368045
-0.55052894 0.28232276 1.738651
-0.55076534 0.28715116 1.7393975
-0.55092299 0.29037252 1.7398955
-0.55262762 0.30840692 1.7353907
-0.55156016 0.31182009 1.7369623
-0.54723001 0.31203088 1.7381364
-0.54257143 0.31205702 1.738282
-0.53791225 0.31208318 1.7384279
-0.53325266 0.31210968 1.7385755
-0.52703869 0.31214499 1.7387722
-0.52237743 0.31217149 1.7389197
-0.51771522 0.31219798 1.7390673
-0.51305228 0.31222448 1.7392149
-0.50786245 0.31349391 1.7375636
-0.50216895 0.31228635 1.7395595
-0.4975034 0.31231287 1.7397072
-0.51186347 0.31776235 1.7351849
-0.50771201 0.31810391 1.7370501
-0.50237852 0.31627414 1.7384754
-0.51618189 0.32307079 1.7356707
-0.51243281 0.32281756 1.7371149
-0.50867707 0.32256338 1.738562
-0.521294 0.32717851 1.7353132
-0.51715267 0.32753038 1.7371793
-0.51300335 0.32788289 1.7390491
-0.52305919 0.33043593 1.7359779
-0.51753646 0.33091003 1.7384686
-0.56769812 0.27205476 1.7432096
-0.56298792 0.27205843 1.743233
-0.5567075 0.27206329 1.7432642
-0.55199713 0.27206695 1.7432877
-0.54921043 0.27224472 1.7444267
-0.54936808 0.27547112 1.7449275
-0.21243376 0.27852425 1.744332
-0.20927283 0.27850595 1.7442173
-0.20619509 0.28174749 1.744803
-0.20299092 0.28166959 1.7443205
-0.19827448 0.28325021 1.7443615
-0.19194831 0.28477544 1.7440677
-0.18730453 0.28803974 1.7447801
-0.55108082 0.29359576 1.7403939
-0.55123866 0.29682082 1.7408924
-0.5514766 0.30166262 1.7416437
-0.55179256 0.30812371 1.7426417
-0.54730713 0.3098262 1.7433769
-0.54263455 0.30985221 1.7435232
-0.53796136 0.30987835 1.7436702
-0.5317297 0.30991349 1.7438681
-0.52705508 0.30993986 1.7440165
-0.52237964 0.30996627 1.7441649
-0.51770347 0.30999264 1.7443135
-0.51302636 0.31001905 1.744462
-0.50678909 0.31005424 1.7446601
-0.5021103 0.31008065 1.7448087
-0.4989906 0.31009826 1.7449077
-0.49307796 0.31249243 1.7407076
-0.48749679 0.31294185 1.7432108
-0.50077498 0.31867498 1.7401685
-0.49694088 0.31785491 1.7414051
-0.49310195 0.31703281 1.7426429
-0.48925814 0.31620863 1.7438818
-0.50707948 0.32497045 1.740255
-0.50253737 0.3219384 1.7408376
-0.49696967 0.32240158 1.7433423
-0.51023185 0.32811835 1.7402979
-0.50745642 0.32835415 1.7415485
-0.50309807 0.32701471 1.74278
-0.49873447 0.32567203 1.7440121
-0.51338452 0.33126646 1.7403412
-0.55428839 0.34230861 1.7406058
-0.55452561 0.34716758 1.7413508
-0.5547632 0.35203129 1.742097
-0.56755865 0.26959038 1.7476225
-0.56283659 0.26959398 1.747646
-0.55811435 0.26959759 1.7476695
-0.5518176 0.2696023 1.7477
-0.54952592 0.27869937 1.7454287
-0.22244118 0.27923468 1.7487811
-0.21740273 0.27884167 1.7463198
-0.20807496 0.27742979 1.747359
-0.20183754 0.27910441 1.7479652
-0.54968381 0.28192952 1.7459302
-0.23189233 0.2823723 1.7486722
-0.22706565 0.28225493 1.7479455
-0.22224252 0.28213766 1.7472193
-0.21742384 0.28202051 1.7464937
-0.21260874 0.28190345 1.7457688
-0.20940103 0.28182545 1.7452857
-0.1983873 0.28341043 1.7453513
-0.19234475 0.28221175 1.747678
-0.5499208 0.28677842 1.746683
-0.22725305 0.28564417 1.7493882
-0.22242588 0.28552541 1.7486608
-0.21769294 0.28710267 1.7486553
-0.21287179 0.28698334 1.7479286
-0.20805506 0.28686413 1.7472025
-0.20220052 0.28728291 1.7465554
-0.19691184 0.28827894 1.7462289
-0.1921064 0.28815928 1.7455041
-0.18753354 0.28524011 1.7469134
-0.18444985 0.28849846 1.7475588
-0.55023712 0.29324982 1.7476877
-0.2083126 0.29195297 1.7493653
-0.20188811 0.29179111 1.7483956
-0.1970742 0.29166982 1.7476689
-0.19234404 0.29324615 1.7476634
-0.18753615 0.29312438 1.7469375
-0.18280926 0.29312593 1.7469507
-0.5504747 0.2981081 1.7484424
-0.20044823 0.29514816 1.7495964
-0.19723685 0.29506633 1.7491112
-0.19097695 0.29830286 1.7495847
-0.18776827 0.29822019 1.7490999
-0.18295877 0.29809624 1.748373
-0.17720449 0.29709432 1.7486652
-0.55071318 0.30297136 1.7491999
-0.1815059 0.30145764 1.7495739
-0.1766977 0.30133232 1.7488467
-0.55050886 0.3075909 1.7485508
-0.5473848 0.30760816 1.7486489
-0.54269803 0.30763406 1.7487962
-0.53801078 0.30766013 1.7489443
-0.53332305 0.30768639 1.7490935
-0.52707148 0.30772141 1.7492926
-0.52238196 0.30774766 1.749442
-0.51769155 0.30777395 1.7495914
-0.51300043 0.30780026 1.7497408
-0.50830841 0.30782655 1.7498903
-0.49587053 0.31011587 1.7450068
-0.49275014 0.31013346 1.7451059
-0.48806882 0.31015986 1.7452545
-0.48186284 0.31179392 1.7455876
-0.47751391 0.31203938 1.7469592
-0.4732022 0.3123143 1.7484982
-0.4671452 0.31090432 1.7494434
-0.48763657 0.31861767 1.7455868
-0.48225954 0.31677869 1.7470257
-0.47804904 0.31712165 1.748917
-0.49278381 0.32274979 1.7452252
-0.48858792 0.32309884 1.7471126
-0.48320773 0.3212626 1.7485547
-0.49752539 0.32748508 1.7452897
-0.49175221 0.32625902 1.7471557
-0.48755154 0.3266122 1.7490468
-0.55345708 0.34216577 1.7478985
-0.5536952 0.34704566 1.7486506
-0.5539338 0.35192943 1.749404
-0.56741846 0.26711345 1.7520577
-0.56268442 0.26711702 1.7520814
-0.55795026 0.26712066 1.752105
-0.55321562 0.26712412 1.7521279
-0.54848015 0.26712722 1.7521482
-0.54835695 0.27180827 1.7517545
-0.21052729 0.27384377 1.7546728
-0.54867327 0.27828982 1.7527649
-0.22749545 0.2796289 1.75125
-0.21817815 0.27667424 1.7525485
-0.21313319 0.27628377 1.7500751
-0.20686939 0.27635226 1.7505089
-0.20239255 0.2767095 1.7527719
-0.19736199 0.27946457 1.7502209
-0.19287354 0.27982569 1.7524827
-0.54891074 0.28315568 1.7535236
-0.23579165 0.28326648 1.7542098
-0.23264425 0.28012267 1.7543423
-0.18717061 0.28207448 1.7533633
-0.54914844 0.28802621 1.754283
-0.24208449 0.28955203 1.7539407
-0.23711857 0.2877028 1.7523146
-0.23217958 0.2874611 1.7508384
-0.22744069 0.28903896 1.7508326
-0.22260953 0.28891876 1.7501047
-0.18328565 0.28756964 1.7515017
-0.24539146 0.29288658 1.7549596
-0.24215776 0.29280514 1.7544715
-0.23731083 0.29268306 1.7537402
-0.23246747 0.29256111 1.7530093
-0.22762862 0.29243928 1.7522793
-0.22279343 0.29231763 1.7515504
-0.21796267 0.29219604 1.7508218
-0.21313539 0.29207444 1.7500932
-0.17864509 0.29247206 1.7524757
-0.23589085 0.29605094 1.7549478
-0.23265983 0.29596862 1.7544599
-0.22734137 0.29696855 1.754131
-0.22306979 0.29742706 1.7537231
-0.218233 0.29730329 1.7529933
-0.21178982 0.29713827 1.7520205
-0.20696181 0.29701456 1.751291
-0.20270163 0.29747185 1.7508839
-0.19739977 0.29846844 1.7505559
-0.19418746 0.29838562 1.7500701
-0.17554839 0.2957437 1.7531265
-0.17253654 0.29916885 1.7546639
-0.20238899 0.30200198 1.7527332
-0.19756292 0.30187616 1.7520028
-0.19274133 0.30175042 1.7512733
-0.18792336 0.30162489 1.7505445
-0.18374532 0.30378589 1.7508612
-0.17684364 0.30473912 1.7502911
-0.17229083 0.30348402 1.7521652
-0.54746282 0.30537671 1.753953
-0.54276192 0.30540249 1.7541012
-0.53806043 0.30542845 1.7542503
-0.53179103 0.30546331 1.7544506
-0.52708811 0.30548948 1.7546009
-0.52238423 0.30551565 1.7547511
-0.51767963 0.30554181 1.7549014
-0.50205112 0.3078616 1.7500895
-0.4973574 0.30788791 1.7502391
-0.49266267 0.3079142 1.7503886
-0.48796725 0.30794051 1.7505381
-0.48327094 0.30796683 1.7506877
-0.47700781 0.30800176 1.7508862
-0.47230932 0.3080278 1.7510345
-0.46760994 0.30805385 1.7511826
-0.46290988 0.30807996 1.7513309
-0.45820892 0.30810603 1.7514791
-0.45206183 0.30822423 1.752151
-0.44763219 0.30843917 1.7533728
-0.44467545 0.3085826 1.7541883
-0.19772637 0.30528951 1.7534523
-0.19298056 0.30687103 1.7534468
-0.18711078 0.30728397 1.7527957
-0.1818061 0.30827993 1.7524676
-0.17698979 0.30815148 1.7517376
-0.17217705 0.30802315 1.751008
-0.46750706 0.31430399 1.7507986
-0.46198961 0.31343761 1.7518374
-0.45794067 0.31249687 1.7524701
-0.45302215 0.31273866 1.7538279
-0.44797972 0.31184456 1.754734
-0.18678136 0.31182954 1.7546496
-0.18195657 0.31169951 1.7539179
-0.17664923 0.31269613 1.753589
-0.1723907 0.31315073 1.7531807
-0.4752211 0.31734031 1.750123
-0.47228265 0.31748766 1.7509356
-0.46786934 0.31770882 1.7521553
-0.46197581 0.31800413 1.7537839
-0.17889038 0.31503704 1.754882
-0.1693906 0.31820104 1.7548698
-0.48157591 0.32368216 1.7502669
-0.4771767 0.32233226 1.7515082
-0.47191072 0.3232204 1.7534685
-0.46823186 0.32111871 1.7535129
-0.46380991 0.32134271 1.7547359
-0.4833408 0.32696623 1.7509427
-0.56569558 0.2646251 1.7565234
-0.56253147 0.26462749 1.7565392
-0.55778527 0.26463106 1.7565629
-0.55303848 0.26463446 1.7565856
-0.54852641 0.26475152 1.7573626
-0.54655474 0.26773262 1.756119
-0.54206759 0.26786393 1.7569804
-0.5375765 0.26799539 1.7578425
-0.53308058 0.26812696 1.7587056
-0.52858067 0.26825866 1.7595694
-0.5471881 0.27280164 1.7581542
-0.54269612 0.27293563 1.7590175
-0.53799206 0.27137652 1.7592013
-0.53499323 0.27146539 1.7597774
-0.2206492 0.27462095 1.7596526
-0.21726882 0.27436137 1.7579893
-0.21389487 0.27410233 1.7563294
-0.20743909 0.27394629 1.7553296
-0.20295078 0.27430159 1.7576063
-0.19845214 0.27465776 1.7598885
-0.2300026 0.27758935 1.7583451
-0.22661604 0.27732733 1.7566854
-0.22323579 0.27706569 1.7550281
-0.19790535 0.27706748 1.7550395
-0.19340539 0.27742675 1.7573152
-0.18889511 0.27778691 1.7595966
-0.18560074 0.28078061 1.7584629
-0.18249597 0.28405896 1.7591174
-0.18211693 0.2866362 1.7554637
-0.1792026 0.28862554 1.7579448
-0.54938632 0.29290047 1.7550429
-0.25711477 0.29361844 1.7593448
-0.25226596 0.29351699 1.758737
-0.24915493 0.29359022 1.7591757
-0.17591324 0.29318875 1.7567701
-0.5496248 0.29777965 1.7558047
-0.2473163 0.29804823 1.7573857
-0.2424587 0.29792374 1.7566519
-0.23817722 0.29838228 1.7562426
-0.2328525 0.29938179 1.7559128
-0.22962053 0.2992985 1.7554243
-0.17280795 0.29646868 1.7574241
-0.54870248 0.3028971 1.7579283
-0.54282618 0.30315733 1.7594384
-0.53811049 0.3031832 1.7595886
-0.53339422 0.30320925 1.7597398
-0.52710462 0.30324396 1.7599413
-0.24762399 0.3031804 1.7595723
-0.24276023 0.30305362 1.7588365
-0.23790097 0.30292696 1.7581015
-0.23304537 0.30280045 1.7573673
-0.22819428 0.30267406 1.7566338
-0.22334678 0.30254778 1.7559007
-0.5129742 0.30556798 1.7550517
-0.50669909 0.30560291 1.7552521
-0.50199181 0.30562907 1.7554026
-0.49728364 0.30565527 1.755553
-0.49257478 0.30568147 1.7557034
-0.48786503 0.30570763 1.7558539
-0.48158377 0.30574235 1.7560532
-0.47687182 0.30576831 1.7562022
-0.47215897 0.30579424 1.7563514
-0.46744543 0.30582023 1.7565005
-0.462731 0.30584621 1.7566496
-0.45801583 0.30587217 1.7567987
-0.45329976 0.30589813 1.7569479
-0.44701052 0.30593276 1.7571468
-0.44200432 0.30734247 1.7561502
-0.4374226 0.30746329 1.756838
-0.43283772 0.30758429 1.7575264
-0.42824894 0.3077054 1.7582157
-0.42268881 0.30736235 1.7592787
-0.23809832 0.30635291 1.7595599
-0.23114391 0.30731097 1.7589837
-0.22676557 0.30605423 1.7578446
-0.16977312 0.3093996 1.7588327
-0.44502082 0.31198969 1.7555507
-0.44205916 0.31213495 1.7563682
-0.43761104 0.31235307 1.7575954
-0.43167096 0.3126443 1.7592343
-0.1916097 0.31195959 1.7553813
-0.16961157 0.3122755 1.757159
-0.4575488 0.31822598 1.7550074
-0.45250523 0.31733489 1.7559148
-0.44702041 0.31703663 1.757187
-0.44257435 0.31725824 1.7584152
-0.43855989 0.31688508 1.7592803
-0.19184813 0.317105 1.7575657
-0.18701366 0.31697258 1.7568316
-0.18218273 0.31684017 1.7560978
-0.17742971 0.31842256 1.7560916
-0.17260481 0.31828961 1.7553583
-0.16945021 0.3151457 1.7554873
-0.46712086 0.3246094 1.7552809
-0.46208143 0.3237215 1.7561885
-0.45790392 0.32164183 1.7563695
-0.45346686 0.3218666 1.7575967
-0.44754159 0.32216671 1.7592356
-0.19208705 0.32226175 1.7597545
-0.1872464 0.32212692 1.7590182
-0.18240936 0.32199219 1.7582825
-0.17757683 0.32185757 1.7575476
-0.17274787 0.3217231 1.7568132
-0.16953096 0.32163352 1.7563239
-0.45825961 0.32506305 1.7577338
-0.18256077 0.32543442 1.759742
-0.17772415 0.32529825 1.7590058
-0.1729629 0.32688466 1.7589998
-0.16967152 0.3250716 1.7577801
-0.55269879 0.34365511 1.7555065
-0.55285811 0.34692243 1.7560127
-0.55309737 0.3518272 1.7567725
-0.56713599 0.26212168 1.760996
-0.56237781 0.26212525 1.7610199
-0.55761945 0.2621288 1.7610438
-0.55286026 0.26213205 1.7610656
-0.54810047 0.262135 1.7610855
-0.54507387 0.26538584 1.761573
-0.5420602 0.26546642 1.762108
-0.53753608 0.26558748 1.7629114
-0.53300852 0.26570871 1.7637162
-0.52751029 0.26666892 1.7630631
-0.52257359 0.26843446 1.7607226
-0.51806289 0.26856649 1.7615886
-0.51204205 0.26874268 1.7627444
-0.50752145 0.268875 1.7636122
-0.50299591 0.26900744 1.7644809
-0.53690767 0.27480793 1.7608507
-0.53219831 0.27324867 1.7610352
-0.52748728 0.27168787 1.7612195
-0.52297819 0.2718215 1.7620858
-0.51846421 0.27195528 1.762953
-0.51243889 0.27213386 1.7641107
-0.50791502 0.27226794 1.7649798
-0.22403598 0.27488104 1.761319
-0.21804921 0.27216363 1.7643037
-0.21297216 0.27177694 1.761797
-0.20651332 0.27164537 1.760944
-0.20201078 0.27199876 1.763235
-0.19722414 0.27356535 1.7630897
-0.54781336 0.27787635 1.7601631
-0.5433259 0.27801776 1.7610588
-0.53732336 0.27820012 1.7622139
-0.53281659 0.27833703 1.7630812
-0.52810031 0.27677625 1.7632664
-0.52251506 0.2763764 1.7641
-0.51735967 0.27539453 1.7646093
-0.2324314 0.27700731 1.7647429
-0.22742929 0.27514172 1.7629895
-0.19243491 0.27513421 1.7629414
-0.18770325 0.27678016 1.7633021
-0.54675502 0.28291479 1.7618722
-0.54245603 0.28315949 1.7633946
-0.53837997 0.28271621 1.7639385
-0.53322965 0.28173628 1.764448
-0.32317659 0.28496853 1.7647502
-0.24034573 0.28491315 1.7644073
-0.23718037 0.28175119 1.7645414
-0.18287686 0.28147134 1.7627888
-0.1797633 0.28475779 1.7634453
-0.54719138 0.28791249 1.7632802
-0.31196898 0.28809363 1.7643894
-0.30707106 0.28797856 1.7636847
-0.30217749 0.28786361 1.7629807
-0.29741523 0.28787249 1.7630351
-0.29275343 0.28798047 1.7636964
-0.28808853 0.28808853 1.7643583
-0.28497651 0.28816062 1.7647997
-0.24351059 0.28807461 1.764273
-0.17664762 0.28804702 1.764104
-0.54852831 0.29254869 1.7624604
-0.30242839 0.29128611 1.7644446
-0.29753414 0.29116976 1.7637399
-0.29276571 0.29276615 1.7637678
-0.28787714 0.29264927 1.7630637
-0.28299293 0.29253247 1.7623601
-0.27811223 0.2924158 1.7616571
-0.27330372 0.29237169 1.7613938
-0.26694354 0.29236615 1.7613655
-0.26217359 0.29236209 1.7613449
-0.25769305 0.29109794 1.7633048
-0.25301602 0.29120713 1.7639663
-0.24828534 0.29125765 1.7642725
-0.17627963 0.29062319 1.7604291
-0.17334881 0.29262388 1.7629247
-0.54876745 0.29744786 1.7632285
-0.2833454 0.29767165 1.7645552
-0.27683064 0.29751316 1.7636156
-0.2719489 0.29739439 1.7629117
-0.26707146 0.29727572 1.7622082
-0.26219749 0.29715717 1.7615054
-0.25732785 0.29703867 1.7608031
-0.25246164 0.2969203 1.7601013
-0.54748553 0.30079898 1.7642248
-0.54289085 0.30089843 1.7648082
-0.53973752 0.30091563 1.7649089
-0.52238661 0.30327001 1.7600925
-0.51766765 0.30329609 1.7602437
-0.51294792 0.30332214 1.7603949
-0.50822735 0.30334818 1.7605462
-0.50193197 0.30338293 1.7607479
-0.49720958 0.30340904 1.7608993
-0.49248624 0.30343509 1.7610505
-0.48776186 0.30346096 1.7612007
-0.48303655 0.30348682 1.7613506
-0.47673494 0.30352128 1.7615507
-0.47200781 0.30354711 1.7617006
-0.46727976 0.30357295 1.7618506
-0.46255106 0.30359882 1.7620007
-0.45782143 0.30362466 1.7621508
-0.45309111 0.30365053 1.7623008
-0.44835985 0.30367637 1.7624509
-0.44205034 0.30371088 1.7626511
-0.43731731 0.30373675 1.7628013
-0.43258339 0.30376261 1.7629515
-0.42784876 0.30378851 1.7631017
-0.42311323 0.30381441 1.763252
-0.41679797 0.30384892 1.7634523
-0.41206065 0.30387485 1.7636027
-0.40732241 0.30390075 1.7637529
-0.40258348 0.30392665 1.7639034
-0.39785206 0.30395907 1.7640915
-0.39321327 0.30406371 1.7646987
-0.27543145 0.30090487 1.764846
-0.27217478 0.30082473 1.7643759
-0.26682457 0.30183598 1.7640815
-0.2625241 0.30230114 1.7636995
-0.25764826 0.30218047 1.7629955
-0.25277585 0.30205989 1.7622919
-0.17017823 0.30218488 1.7630297
-0.42092183 0.30973494 1.7607388
-0.41777754 0.30817109 1.7608757
-0.41314012 0.30667737 1.7614235
-0.40716428 0.30696398 1.7630696
-0.40267536 0.30717921 1.7643059
-0.25634262 0.3072927 1.7649577
-0.2530908 0.30721083 1.7644875
-0.24782959 0.30660939 1.7610332
-0.2430626 0.30819768 1.7610273
-0.238296 0.30978453 1.7610207
-0.23343214 0.30965489 1.7602838
-0.16993491 0.30651814 1.7605089
-0.42720899 0.31286311 1.7604654
-0.4227401 0.31308222 1.7616984
-0.41677225 0.31337485 1.763345
-0.41307107 0.31126267 1.7633909
-0.40748167 0.31038669 1.7644439
-0.25301641 0.31189507 1.7639688
-0.24813867 0.31176433 1.7632294
-0.24174154 0.31330949 1.7629771
-0.23687088 0.31317827 1.7622389
-0.23200476 0.31304723 1.7615014
-0.4368059 0.3192654 1.7607398
-0.43217492 0.31777656 1.761288
-0.42770803 0.31799918 1.7625219
-0.42367688 0.31762552 1.7633911
-0.41859162 0.31672904 1.764307
-0.24194281 0.31675377 1.7644448
-0.23706801 0.31662104 1.7637055
-0.23288988 0.31883201 1.7641978
-0.16715539 0.31679925 1.7646983
-0.44160524 0.32246739 1.7608776
-0.43714607 0.32269329 1.7621109
-0.43267992 0.32291949 1.7633462
-0.42190641 0.32001203 1.7648574
-0.19578481 0.3294915 1.7644658
-0.19232658 0.32743269 1.7619488
-0.18747976 0.32729548 1.7612106
-0.18271244 0.32888237 1.7612039
-0.17787173 0.32874465 1.7604665
-0.19580419 0.33270794 1.7646406
-0.19256657 0.33261499 1.7641475
-0.18771368 0.33247554 1.7634078
-0.18286434 0.33233607 1.7626681
-0.17801955 0.33219677 1.7619295
-0.17317837 0.33205763 1.7611914
-0.18625151 0.33588946 1.7646285
-0.18301652 0.33579555 1.7641351
-0.17767806 0.33679342 1.7638021
-0.17332236 0.33551392 1.7626556
-0.55177432 0.34187746 1.7626715
-0.55201399 0.34679866 1.763437
-0.55225384 0.35172361 1.7642033
-0.56540358 0.25960782 1.7655075
-0.56222326 0.25961018 1.7655234
-0.55745268 0.25961369 1.7655473
-0.55268115 0.25961679 1.7655684
-0.54790914 0.25961974 1.7655885
-0.54623133 0.26276433 1.7653135
-0.54214382 0.26309931 1.7675641
-0.53760618 0.26321962 1.7683723
-0.53306383 0.26334006 1.7691813
-0.52851784 0.26346055 1.7699909
-0.52242738 0.26599211 1.7655973
-0.51788604 0.26611373 1.7664046
-0.51334 0.26623547 1.7672129
-0.5072726 0.26639801 1.7682915
-0.50271738 0.26652002 1.7691014
-0.49781045 0.26829484 1.7667875
-0.4921824 0.26918712 1.7656596
-0.48762786 0.26931095 1.7664719
-0.4815678 0.26948678 1.767625
-0.47701785 0.26961878 1.7684908
-0.47246289 0.26975089 1.7693574
-0.21543571 0.26969361 1.7689816
-0.21204218 0.26943704 1.7672988
-0.20711912 0.2692554 1.7661076
-0.5033862 0.27240217 1.7658501
-0.49727377 0.27254432 1.7667716
-0.49257588 0.27259052 1.7670711
-0.48787624 0.27263677 1.7673708
-0.48160762 0.2726984 1.7677704
-0.47690439 0.27274466 1.7680702
-0.47219941 0.27279091 1.7683702
-0.46749303 0.27283722 1.7686703
-0.46278483 0.27288353 1.7689705
-0.45807523 0.27292985 1.7692707
-0.45336384 0.27297616 1.7695711
-0.44865105 0.2730225 1.7698715
-0.22824906 0.27294117 1.7693442
-0.22314265 0.27255189 1.7668207
-0.19598827 0.27247149 1.7662995
-0.52077615 0.27870286 1.7653984
-0.51776111 0.27879444 1.7659786
-0.51303542 0.2772311 1.7661644
-0.50699568 0.27741349 1.7673264
-0.50246084 0.27755043 1.7681987
-0.49786854 0.2776581 1.7688848
-0.49316734 0.2777065 1.7691929
-0.48826665 0.27604622 1.7687851
-0.48199311 0.27610868 1.7691853
-0.47728619 0.27615556 1.7694857
-0.47257751 0.27620244 1.7697861
-0.37670439 0.27933574 1.7694073
-0.37176663 0.27922386 1.7686987
-0.36710447 0.27931875 1.7692999
-0.36245283 0.27942398 1.7699664
-0.18639675 0.27561229 1.7660047
-0.18325944 0.27887306 1.7664766
-0.53022033 0.28182882 1.7650276
-0.52720904 0.28192145 1.7656077
-0.52268809 0.28206047 1.7664784
-0.51665354 0.28224605 1.7676406
-0.51212269 0.28238538 1.7685133
-0.50758684 0.28252488 1.769387
-0.36713868 0.28253701 1.7694628
-0.36220461 0.28242385 1.7687542
-0.35727489 0.28231078 1.7680461
-0.35234869 0.2821978 1.7673385
-0.34747729 0.28212607 1.7668892
-0.34278569 0.28220031 1.7673541
-0.33812952 0.28230643 1.7680188
-0.33191615 0.28244805 1.7689058
-0.3272523 0.28255442 1.7695719
-0.18013954 0.28216547 1.767136
-0.54158318 0.28831357 1.7657363
-0.53686118 0.28675142 1.765922
-0.53234422 0.28689289 1.766793
-0.52688569 0.28763482 1.7680877
-0.5227263 0.28662303 1.7684056
-0.51705509 0.28565714 1.7690146
-0.51252091 0.28579828 1.7698886
-0.35757241 0.2857385 1.7695185
-0.35264197 0.28562406 1.7688097
-0.34786072 0.28722495 1.7688379
-0.3429361 0.28710994 1.7681296
-0.33801579 0.28699505 1.767422
-0.33309904 0.2868802 1.7667148
-0.32818663 0.28676552 1.7660084
-0.32120836 0.2872293 1.7655977
-0.31691885 0.28666002 1.7653643
-0.31230593 0.28521833 1.7662972
-0.30764148 0.28532553 1.766961
-0.30297315 0.28543282 1.7676253
-0.29674351 0.28557593 1.7685118
-0.29206747 0.28568348 1.7691778
-0.28894803 0.28575522 1.7696221
-0.28186297 0.28823274 1.7652415
-0.27718949 0.28834099 1.7659044
-0.27251291 0.28844935 1.7665679
-0.26783243 0.28855777 1.7672319
-0.26158655 0.28870246 1.7681181
-0.25689828 0.28881112 1.7687837
-0.25220603 0.28891975 1.769449
-0.17701729 0.28546029 1.7677957
-0.17389274 0.28875765 1.7684562
-0.54672897 0.2932896 1.7669218
-0.54200369 0.29172567 1.7671072
-0.53748667 0.29186964 1.7679794
-0.53296477 0.29201376 1.7688525
-0.52843881 0.29215801 1.7697263
-0.34007964 0.29218107 1.769866
-0.33679643 0.29210305 1.7693933
-0.33187509 0.29198605 1.7686846
-0.32695726 0.29186916 1.7679765
-0.32204384 0.29175237 1.7672691
-0.31713387 0.29163566 1.7665621
-0.31235811 0.29323462 1.7665901
-0.3074539 0.29311734 1.7658837
-0.30267972 0.29471427 1.7659111
-0.29778129 0.29459646 1.7652051
-0.1706759 0.29349792 1.7681855
-0.54736626 0.29841834 1.7689815
-0.54306787 0.2962676 1.7688416
-0.53790456 0.29528886 1.7693539
-0.53488839 0.29538611 1.7699367
-0.33051032 0.2953836 1.7699217
-0.32722953 0.29530472 1.7694489
-0.32185471 0.29631972 1.7691525
-0.31752989 0.29678738 1.7687682
-0.31274807 0.29838699 1.7687957
-0.30783761 0.29826754 1.7680875
-0.30293149 0.29814816 1.7673799
-0.29802889 0.29802889 1.7666728
-0.29313064 0.29790974 1.7659664
-0.28823584 0.29779062 1.7652605
-0.17042238 0.29784098 1.765559
-0.53658402 0.30093288 1.7650102
-0.53185308 0.30095881 1.7651622
-0.52712142 0.30098474 1.7653143
-0.52238888 0.30101067 1.7654665
-0.51765561 0.30103663 1.7656187
-0.51292133 0.30106258 1.7657709
-0.50660789 0.30109715 1.7659738
-0.50187188 0.30112311 1.7661259
-0.49713486 0.30114901 1.7662778
-0.4923968 0.30117473 1.7664287
-0.48765785 0.30120045 1.7665796
-0.48291817 0.30122617 1.7667304
-0.47817758 0.30125189 1.7668812
-0.47185558 0.30128622 1.7670825
-0.46711326 0.30131197 1.7672335
-0.46236995 0.30133769 1.7673844
-0.45762593 0.30136341 1.7675353
-0.45288104 0.30138919 1.7676864
-0.44813541 0.30141494 1.7678374
-0.44338891 0.30144069 1.7679884
-0.43705899 0.30147505 1.7681899
-0.43231067 0.3015008 1.7683411
-0.42756146 0.30152658 1.7684922
-0.42281148 0.30155236 1.7686434
-0.41806066 0.3015781 1.7687947
-0.41172504 0.30161256 1.7689966
-0.40697244 0.30163839 1.7691481
-0.40221894 0.30166423 1.7692997
-0.39746475 0.3016901 1.7694514
-0.39185449 0.30252841 1.7681416
-0.38751358 0.30299234 1.7677467
-0.38283029 0.30307254 1.768213
-0.37785012 0.30451214 1.7673013
-0.37323213 0.30464691 1.7680836
-0.36706871 0.3048268 1.7691276
-0.3624416 0.30496189 1.7699115
-0.30809402 0.30170867 1.7695602
-0.30318373 0.30158782 1.7688515
-0.29676604 0.30314857 1.7686437
-0.29186243 0.30302721 1.7679358
-0.28696314 0.30290595 1.7672284
-0.28206733 0.3027848 1.7665213
-0.27775732 0.30325004 1.7661381
-0.27240103 0.30426079 1.7658427
-0.26914331 0.30417973 1.7653722
-0.39812914 0.30735588 1.7653205
-0.39199004 0.30753708 1.7663614
-0.3873812 0.30767313 1.7671428
-0.38276783 0.30780929 1.7679249
-0.37661061 0.30799109 1.7689688
-0.37198812 0.30812749 1.7697525
-0.28732166 0.30807242 1.7694361
-0.28241959 0.30794904 1.7687274
-0.27752191 0.30782577 1.7680194
-0.27262768 0.30770257 1.7673119
-0.26773781 0.30757952 1.766605
-0.26285142 0.30745652 1.7658986
-0.25959614 0.30737457 1.7654279
-0.16763581 0.30813059 1.7697701
-0.40779954 0.31381479 1.7658205
-0.40219745 0.31293949 1.7668705
-0.39803919 0.31194898 1.7672793
-0.39245796 0.31269088 1.7684698
-0.38784379 0.31282938 1.769253
-0.38307244 0.31124654 1.7693319
-0.27775306 0.31127477 1.7694923
-0.27285469 0.3111501 1.7687836
-0.26807228 0.31275141 1.7688119
-0.26212922 0.31317326 1.7681917
-0.25771239 0.31191233 1.7670726
-0.16739529 0.31247044 1.767231
-0.41560274 0.31687719 1.7651323
-0.41261107 0.31702548 1.7659584
-0.40811792 0.31724823 1.767199
-0.40211773 0.31754565 1.7688559
-0.39754254 0.31771472 1.7697977
-0.26024508 0.31772253 1.7698412
-0.25698322 0.31763765 1.7693684
-0.25170422 0.31701958 1.7659254
-0.24682124 0.31688663 1.7651849
-0.23103374 0.31707388 1.7662281
-0.41742262 0.32023674 1.7660966
-0.4129332 0.32046169 1.7673372
-0.40843681 0.320687 1.7685798
-0.40393478 0.3209126 1.769824
-0.2514405 0.32161057 1.7678071
-0.24713005 0.3220669 1.7673934
-0.24224541 0.32193178 1.7666517
-0.23736441 0.32179672 1.7659106
-0.2325848 0.32338816 1.7659054
-0.24743949 0.32725868 1.7696065
-0.24254863 0.3271212 1.7688631
-0.23766142 0.32698384 1.7681203
-0.23277879 0.3268466 1.7673781
-0.22812328 0.32702988 1.7683692
-0.23785985 0.33044958 1.7695965
-0.23297298 0.3303107 1.7688527
-0.22660148 0.33192378 1.7689434
-0.22189507 0.33364078 1.7695882
-0.19904357 0.33280087 1.7651334
-0.21707416 0.33678383 1.7693272
-0.21228245 0.33677894 1.7693014
-0.20683901 0.33764276 1.7682501
-0.20253778 0.33809522 1.7678348
-0.19767061 0.33795327 1.7670927
-0.19280717 0.33781159 1.7663517
-0.18851368 0.33826324 1.7659374
-0.18316889 0.33926064 1.7656038
-0.179933 0.33916575 1.7651099
-0.17376956 0.33956805 1.7672036
-0.20912133 0.34002173 1.7695646
-0.19791794 0.34316379 1.7693036
-0.19304828 0.34301969 1.7685606
-0.18818307 0.34287554 1.7678175
-0.1817022 0.34268352 1.7668275
-0.17684604 0.34253964 1.7660856
-0.18834007 0.34635377 1.7692922
-0.18185368 0.34615964 1.7683005
-0.56510854 0.25453895 1.7745838
-0.56191188 0.25454128 1.7746
-0.55711651 0.25454462 1.7746232
-0.55232012 0.25454754 1.7746435
-0.54752362 0.25455046 1.7746639
-0.56206799 0.25708222 1.77005
-0.55728525 0.25708574 1.7700742
-0.55250108 0.25708866 1.7700944
-0.54641664 0.25723162 1.7710787
-0.54526073 0.26063782 1.7725121
-0.5422284 0.26071748 1.7730539
-0.53767622 0.26083708 1.7738671
-0.53312027 0.26095676 1.7746812
-0.52548474 0.26354098 1.7705312
-0.52244997 0.26362154 1.7710724
-0.51789403 0.26374248 1.7718849
-0.51181334 0.26390386 1.7729692
-0.5072481 0.26402506 1.7737833
-0.50267828 0.26414636 1.7745984
-0.49664336 0.26668632 1.7702053
-0.49209356 0.26681709 1.7710735
-0.48753983 0.26694804 1.7719425
-0.48298109 0.26707911 1.7728124
-0.47689611 0.26725399 1.7739736
-0.47232747 0.26738536 1.7748455
-0.46790397 0.26988319 1.770225
-0.46486202 0.2699714 1.7708038
-0.4618181 0.27005973 1.771383
-0.45724821 0.2701923 1.7722526
-0.45267439 0.27032501 1.773123
-0.44723311 0.271323 1.7726868
-0.44293869 0.27183756 1.7725693
-0.43765211 0.27313334 1.7705898
-0.43299237 0.27321658 1.7711295
-0.4283523 0.27331448 1.771764
-0.42216063 0.27344507 1.7726107
-0.41751316 0.27354309 1.7732462
-0.412862 0.27364123 1.7738823
-0.40665549 0.27377215 1.7747309
-0.49022692 0.27944532 1.7701014
-0.48708841 0.27947697 1.7703019
-0.4823792 0.27952445 1.7706026
-0.47766858 0.27957192 1.7709033
-0.47295618 0.2796194 1.7712042
-0.46706954 0.27853832 1.7710994
-0.4627552 0.27744094 1.7708937
-0.45705378 0.27806836 1.7714982
-0.45233646 0.27811563 1.7717993
-0.44761738 0.2781629 1.7721006
-0.44289684 0.27821022 1.7724018
-0.43814591 0.27823931 1.7725871
-0.43227795 0.27876934 1.7725687
-0.4278374 0.27758884 1.7718383
-0.42195448 0.27810699 1.7717439
-0.41709459 0.27806371 1.7714684
-0.41223633 0.27802044 1.7711928
-0.40737945 0.27797723 1.7709174
-0.4025372 0.27794293 1.7706993
-0.39776409 0.27795592 1.7707841
-0.39301151 0.27798367 1.7709634
-0.38726711 0.27753228 1.7714843
-0.3829056 0.27852455 1.7710218
-0.37752354 0.27674413 1.7732569
-0.37286547 0.27684861 1.7739265
-0.36820349 0.27695322 1.7745967
-0.35779732 0.27952933 1.7706335
-0.35158479 0.27966988 1.7715238
-0.34692144 0.27977538 1.7721921
-0.34225422 0.27988094 1.772861
-0.3375839 0.27998665 1.7735304
-0.50153244 0.28271112 1.7705532
-0.49689969 0.28280142 1.7711189
-0.49218997 0.28284949 1.7714198
-0.48747885 0.28289756 1.7717209
-0.48276591 0.28294563 1.772022
-0.4780516 0.28299376 1.7723234
-0.4733355 0.28304189 1.7726247
-0.46704498 0.28310609 1.7730268
-0.46232527 0.28315425 1.7733284
-0.45760381 0.28320241 1.7736301
-0.45288092 0.2832506 1.773932
-0.44815624 0.28329882 1.7742338
-0.44185427 0.2833631 1.7746365
-0.43708161 0.28338256 1.7747585
-0.43221122 0.28333843 1.7744819
-0.42734221 0.28329429 1.7742054
-0.42247486 0.28325015 1.7739291
-0.41760889 0.28320605 1.7736528
-0.41274458 0.28316194 1.7733766
-0.40788165 0.28311783 1.7731005
-0.40302038 0.28307378 1.7728245
-0.39816046 0.28302971 1.7725486
-0.3933022 0.28298569 1.7722727
-0.38682675 0.28292695 1.7719049
-0.38196391 0.28287703 1.7715924
-0.37701839 0.28276363 1.7708821
-0.37207633 0.28265026 1.7701721
-0.33290961 0.28009239 1.7742002
-0.3282322 0.28019822 1.7748706
-0.32258457 0.2826609 1.7702389
-0.31791371 0.28276747 1.7709062
-0.31323892 0.28287411 1.771574
-0.30700067 0.28301644 1.7724653
-0.30231807 0.28312328 1.7731345
-0.29763126 0.28322995 1.7738025
-0.29294133 0.2833367 1.774471
-0.28981262 0.28340793 1.7749171
-0.24176785 0.28339675 1.7748473
-0.23858409 0.28021622 1.7749846
-0.51745737 0.28907353 1.7703907
-0.51291984 0.28921649 1.7712662
-0.50817955 0.28764957 1.7714533
-0.50211847 0.28783941 1.772622
-0.49749774 0.28794146 1.7732505
-0.49278244 0.28799045 1.7735522
-0.48708215 0.28862235 1.7741585
-0.48275805 0.28752193 1.7739521
-0.47686207 0.28643733 1.7738463
-0.47214189 0.28648609 1.7741482
-0.46741992 0.28653485 1.7744503
-0.46269649 0.28658363 1.7747523
-0.4595466 0.28661618 1.7749537
-0.41308418 0.2865971 1.7748356
-0.40821719 0.28655246 1.7745591
-0.40335184 0.28650779 1.7742826
-0.39686698 0.2864483 1.7739141
-0.392005 0.28640366 1.7736377
-0.38730398 0.28807792 1.7740909
-0.38244143 0.28803188 1.7738072
-0.37749034 0.28791687 1.7730989
-0.37254196 0.28780133 1.7723873
-0.36759797 0.28768587 1.7716763
-0.36265749 0.28757048 1.7709658
-0.35787046 0.28917193 1.7709934
-0.35293576 0.289056 1.7702833
-0.28582701 0.28582701 1.7700666
-0.28270444 0.28589883 1.7705114
-0.27801737 0.28600657 1.7711787
-0.27176249 0.28615016 1.7720677
-0.26706743 0.28625789 1.772735
-0.26236844 0.28636575 1.7734029
-0.25766629 0.28647369 1.7740713
-0.25296021 0.2865817 1.7747403
-0.24751052 0.28902841 1.7701144
-0.24495113 0.28657681 1.7747099
-0.52541894 0.2922543 1.7703094
-0.52239704 0.29235062 1.770893
-0.51786017 0.29249525 1.771769
-0.5118044 0.29268828 1.7729383
-0.50725752 0.29283321 1.7738162
-0.50270569 0.29297835 1.7746952
-0.37300861 0.29296383 1.7746074
-0.36805823 0.29284614 1.7738945
-0.36311141 0.29272857 1.7731824
-0.35816899 0.29261109 1.7724707
-0.35323009 0.29249367 1.7717595
-0.34829557 0.2923764 1.771049
-0.3433646 0.29225919 1.770339
-0.54133946 0.29861498 1.7701471
-0.5366298 0.29866007 1.7704144
-0.53187728 0.29708466 1.7705436
-0.52723861 0.29717064 1.771058
-0.52259755 0.29725668 1.7715727
-0.51795352 0.29734281 1.7720881
-0.51243389 0.29700819 1.7732736
-0.50814521 0.29881501 1.7713327
-0.50181115 0.29884931 1.7715362
-0.49705932 0.29887491 1.7716879
-0.49230665 0.29890049 1.7718396
-0.48755327 0.29892609 1.7719914
-0.48279896 0.29895169 1.7721431
-0.47804394 0.29897732 1.772295
-0.473288 0.29900295 1.7724469
-0.46694556 0.2990371 1.7726493
-0.46218783 0.2990627 1.7728012
-0.45742917 0.29908836 1.772953
-0.4526698 0.29911396 1.773105
-0.44790953 0.29913962 1.773257
-0.44314852 0.29916525 1.773409
-0.43838662 0.29919088 1.773561
-0.43203622 0.29922509 1.7737639
-0.42727256 0.29925081 1.7739162
-0.42250797 0.29927653 1.7740686
-0.4177427 0.29930225 1.7742211
-0.41297647 0.29932794 1.7743735
-0.40662032 0.29936224 1.7745768
-0.40185231 0.29938796 1.7747293
-0.39708334 0.29941368 1.7748818
-0.3617655 0.29613531 1.7744257
-0.35681972 0.29601637 1.773713
-0.35202527 0.29762185 1.7737412
-0.3470853 0.29750234 1.7730291
-0.34214973 0.29738295 1.7723175
-0.33721769 0.29726365 1.7716064
-0.33288327 0.2977314 1.771221
-0.32750228 0.29874596 1.7709236
-0.32422045 0.29866612 1.7704502
-0.16811974 0.29941323 1.7748791
-0.37685344 0.30180216 1.7701086
-0.37209487 0.30182803 1.7702603
-0.36733538 0.3018539 1.7704121
-0.36257517 0.30187976 1.7705638
-0.35781407 0.30190566 1.7707157
-0.35305226 0.30193156 1.7708676
-0.34829408 0.30196145 1.7710428
-0.34206918 0.30210805 1.7719026
-0.33742374 0.3022421 1.772689
-0.33269307 0.30230272 1.7730443
-0.32777545 0.30219299 1.7724009
-0.32284939 0.30207175 1.7716899
-0.31792685 0.30195063 1.7709794
-0.3130087 0.30182961 1.7702695
-0.30179885 0.30499247 1.7700891
-0.16795798 0.30232435 1.7731713
-0.36736107 0.30826405 1.7705367
-0.36273035 0.30840069 1.7713215
-0.35795248 0.30681723 1.7714016
-0.35176843 0.30699873 1.7724494
-0.34712577 0.30713499 1.7732358
-0.34247857 0.30727133 1.7740232
-0.33769289 0.30568406 1.7741029
-0.33296472 0.30575114 1.7744923
-0.32654113 0.30733371 1.7743845
-0.3226608 0.3066617 1.7735834
-0.3172743 0.3076767 1.7732857
-0.31280974 0.30641559 1.7721601
-0.30684039 0.30684087 1.7715377
-0.30205056 0.30844316 1.7715654
-0.29713714 0.30831948 1.7708552
-0.29222721 0.30819589 1.7701453
-0.16779655 0.30522993 1.7714672
-0.38337773 0.31468943 1.7707421
-0.37706074 0.313153 1.7710831
-0.37228438 0.31156847 1.7711619
-0.36765379 0.31170666 1.7719476
-0.36301956 0.31184497 1.7727338
-0.35838073 0.31198344 1.7735209
-0.35218957 0.31216824 1.7745714
-0.31543627 0.3122339 1.7749445
-0.31215024 0.31215024 1.774469
-0.30722469 0.31202489 1.7737564
-0.30230269 0.3118996 1.7730442
-0.29738504 0.31177443 1.7723327
-0.29247093 0.31164935 1.7716217
-0.2870954 0.31266293 1.771325
-0.28277284 0.31312764 1.7709398
-0.27798468 0.31472951 1.7709677
-0.27308211 0.31460336 1.7702577
-0.39292675 0.31785557 1.7705822
-0.38676628 0.31804353 1.7716293
-0.38214138 0.31818467 1.7724155
-0.37751192 0.31832594 1.7732024
-0.37273017 0.31674129 1.7732828
-0.36856079 0.31629065 1.7737468
-0.36176246 0.31534183 1.774413
-0.30255529 0.31536186 1.7745258
-0.29763344 0.3152352 1.773813
-0.29283738 0.31684113 1.7738416
-0.28850722 0.31730524 1.7734551
-0.28312692 0.31831783 1.7731574
-0.27821666 0.3181901 1.7724457
-0.2716755 0.3180199 1.7714977
-0.266774 0.31789237 1.7707874
-0.26350868 0.31780741 1.7703141
-0.22893386 0.31858626 1.7746526
-0.28172508 0.32174259 1.7744014
-0.27681151 0.32161337 1.7736888
-0.27201593 0.3232193 1.7737174
-0.26710814 0.32308957 1.7730052
-0.26220474 0.3229599 1.7722938
-0.25730485 0.32283032 1.7715828
-0.25414649 0.32447633 1.7718476
-0.22863534 0.32296669 1.7723386
-0.1680436 0.32168347 1.7740753
-0.26253334 0.32816643 1.7745149
-0.25762716 0.32803458 1.773802
-0.2525306 0.32764858 1.7717148
-0.22545369 0.32778728 1.7724648
-0.19678095 0.32796824 1.7734433
-0.25274166 0.33112168 1.7731955
-0.24774981 0.33246493 1.7718258
-0.24285267 0.33232507 1.7710804
-0.23805852 0.33392102 1.7710745
-0.23316747 0.33378053 1.7703295
-0.22233394 0.33110163 1.7730882
-0.21737242 0.33405125 1.7717655
-0.2128398 0.33446255 1.7739468
-0.20793742 0.33429825 1.7730753
-0.20286874 0.33385485 1.7707237
-0.19996527 0.33114249 1.773307
-0.17091019 0.33063936 1.7706127
-0.24806078 0.33768272 1.7740496
-0.24315733 0.33754045 1.7733021
-0.23825756 0.33739826 1.7725552
-0.23336235 0.33725622 1.7718089
-0.22684152 0.33706701 1.7708149
-0.22195554 0.3369253 1.7700704
-0.55100244 0.34337831 1.7704097
-0.24172562 0.34097719 1.7745372
-0.23682348 0.34083349 1.7737892
-0.23202209 0.34243327 1.7737839
-0.22712617 0.34228906 1.7730368
-0.22223398 0.34214509 1.7722909
-0.21734636 0.3420012 1.7715458
-0.21246237 0.34185737 1.7708008
-0.20766944 0.34345293 1.7707943
-0.20279139 0.34330827 1.7700485
-0.55124277 0.34832177 1.7711821
-0.22251299 0.34737641 1.7745161
-0.21761909 0.34723011 1.7737688
-0.21272886 0.34708393 1.7730221
-0.20784304 0.34693763 1.7722747
-0.20296085 0.34679139 1.7715276
-0.19808324 0.3466453 1.7707813
-0.19223376 0.3487905 1.7708563
-0.18687342 0.34978873 1.7705209
-0.19824883 0.35013261 1.7722616
-0.561755 0.25198725 1.7791734
-0.55694699 0.25199044 1.7791959
-0.55213821 0.2519933 1.7792163
-0.54732937 0.25199622 1.7792367
-0.54412335 0.25199813 1.7792503
-0.54292607 0.25728783 1.7788335
-0.53774714 0.25843966 1.7793963
-0.53470075 0.25851896 1.7799423
-0.5300805 0.26103663 1.7752242
-0.52703893 0.26111653 1.7757677
-0.52247274 0.26123649 1.7765834
-0.51790285 0.26135653 1.7773999
-0.51332837 0.26147676 1.7782174
-0.50722307 0.26163733 1.7793095
-0.49658349 0.26431072 1.7757025
-0.49201933 0.26444036 1.7765734
-0.4874509 0.26457053 1.7774479
-0.48287845 0.2647008 1.7783232
-0.47830099 0.26483124 1.7791995
-0.46775377 0.26751685 1.7757182
-0.46164888 0.26769239 1.7768834
-0.45706522 0.2678242 1.7777582
-0.45247656 0.26795614 1.7786341
-0.4478839 0.26808822 1.7795107
-0.44045478 0.27067947 1.7754482
-0.43739185 0.27076638 1.7760181
-0.4327406 0.27086365 1.7766564
-0.4280864 0.27096105 1.7772951
-0.42342848 0.2710585 1.7779342
-0.4172129 0.2711885 1.7787871
-0.41254753 0.27128613 1.7794273
-0.40943527 0.27135122 1.7798543
-0.40199691 0.27387041 1.775368
-0.39733464 0.27396876 1.7760055
-0.39266935 0.27406719 1.7766435
-0.38800034 0.27416566 1.777282
-0.38177067 0.27429757 1.778137
-0.37709966 0.27440017 1.7788022
-0.37242639 0.27450407 1.7794757
-0.36198229 0.27709278 1.775491
-0.35731247 0.27719757 1.7761624
-0.35263869 0.27730238 1.7768342
-0.34796175 0.27740729 1.7775062
-0.34328061 0.27751207 1.7781776
-0.33703387 0.27765188 1.7790735
-0.33234489 0.27775684 1.7797461
-0.23539983 0.27703518 1.7751219
-0.32511181 0.28026879 1.7753177
-0.32198966 0.28033927 1.775764
-0.31730336 0.28044504 1.7764342
-0.31261387 0.2805509 1.7771046
-0.30792046 0.28065687 1.7777758
-0.30165732 0.28079826 1.7786713
-0.29695606 0.28090438 1.7793437
-0.29381979 0.28097522 1.7797923
-0.28668231 0.28347915 1.7753633
-0.28198373 0.28358614 1.7760333
-0.27728203 0.28369319 1.7767037
-0.27257639 0.2838003 1.7773746
-0.26786754 0.2839075 1.778046
-0.26315477 0.28401482 1.778718
-0.47724509 0.28987038 1.7752709
-0.47252116 0.28991976 1.7755734
-0.46779543 0.28996915 1.7758758
-0.45639598 0.28664869 1.7751552
-0.45166862 0.28669754 1.7754576
-0.44693986 0.28674635 1.7757599
-0.4422093 0.2867952 1.7760625
-0.43744147 0.28682059 1.7762197
-0.43256706 0.28677589 1.7759428
-0.42769399 0.28673118 1.7756659
-0.42282259 0.28668648 1.7753891
-0.41795254 0.28664178 1.7751123
-0.40693 0.28997761 1.7759278
-0.40206096 0.2899324 1.7756507
-0.39719358 0.28988719 1.7753738
-0.39232755 0.28984198 1.775097
-0.24825096 0.28668982 1.7754098
-0.49809706 0.29309249 1.7753867
-0.4933762 0.29314241 1.7756891
-0.48707935 0.29320902 1.7760925
-0.48235491 0.29325897 1.7763952
-0.47762871 0.29330894 1.7766979
-0.47290105 0.29335895 1.7770008
-0.4681716 0.29340896 1.7773037
-0.46226493 0.29232326 1.777198
-0.45793629 0.29122055 1.776991
-0.45221356 0.29185486 1.7775996
-0.44747913 0.2919046 1.7779026
-0.44274297 0.2919544 1.7782059
-0.4379825 0.291989 1.7784166
-0.43310195 0.2919434 1.7781389
-0.42719719 0.29246235 1.7780437
-0.42274502 0.29127255 1.7773088
-0.41684419 0.29179153 1.7772139
-0.41197008 0.29174602 1.7769365
-0.40726525 0.29342335 1.7773908
-0.40239215 0.29337755 1.7771134
-0.39752069 0.29333174 1.7768359
-0.39265063 0.29328597 1.7765588
-0.38778222 0.29324022 1.7762816
-0.38291517 0.29319447 1.7760044
-0.37796336 0.29308161 1.7753208
-0.50765324 0.2962645 1.7751999
-0.50309801 0.29641142 1.7760801
-0.49692273 0.29655069 1.7769148
-0.49219778 0.29660127 1.7772177
-0.48744798 0.29663777 1.7774365
-0.48267913 0.29666325 1.7775892
-0.47790939 0.29668874 1.7777419
-0.47313893 0.29671425 1.7778947
-0.46836755 0.29673976 1.7780476
