# .PCD v0.7 - Point Cloud Data file format
VERSION 0.7
FIELDS x y z
SIZE 4 4 4
TYPE F F F
COUNT 1 1 1
WIDTH 732
HEIGHT 1
VIEWPOINT 0 0 0 1 0 0 0
POINTS 732
DATA ascii
-0.57862794 0.48469478 1.3883429
-0.57360584 0.48468447 1.3883133
-0.56878805 0.48484808 1.388782
-0.5374558 0.48483777 1.3887525
-0.53354448 0.48469877 1.3883543
-0.52850324 0.48467001 1.388272
-0.52497339 0.48487997 1.3888733
-0.58161473 0.48635051 1.3894947
-0.5771935 0.48704615 1.3879055
-0.57313144 0.48678616 1.3871646
-0.56703943 0.48609373 1.3875734
-0.56300271 0.4879365 1.3868746
-0.55756384 0.4875561 1.3857949
-0.55233902 0.48735824 1.3852333
-0.54763722 0.48762286 1.3859844
-0.54244846 0.4873783 1.3874266
-0.53855687 0.4876636 1.3872849
-0.53309464 0.48679316 1.3871845
-0.52846205 0.48713708 1.3881645
-0.52276933 0.48516005 1.3896756
-0.56770986 0.49001005 1.389209
-0.5528785 0.49270126 1.3897302
-0.53773761 0.49010584 1.3894806
-0.59517288 0.48192647 1.3948303
-0.59336394 0.48399335 1.3935354
-0.58754873 0.48334664 1.3916736
-0.58306623 0.48379499 1.3929644
-0.52248347 0.48354781 1.3922527
-0.5173412 0.48343799 1.3919365
-0.51264817 0.48330608 1.393972
-0.58773178 0.48600793 1.3921043
-0.58461684 0.48906657 1.3936629
-0.52545202 0.48783016 1.3901396
-0.52199751 0.48767307 1.3920752
-0.5176425 0.48623282 1.3927485
-0.57810771 0.4913905 1.3931227
-0.57197654 0.49044448 1.3904407
-0.56736815 0.49440286 1.3945298
-0.56298089 0.49386454 1.3930113
-0.55714285 0.4931463 1.3909855
-0.55067366 0.49297208 1.3904941
-0.54736149 0.49337888 1.3916415
-0.54293716 0.49392229 1.3931743
-0.53754711 0.49233305 1.3922288
-0.53209317 0.49068055 1.3911099
-0.52780664 0.49136364 1.3930466
-0.60225993 0.48121831 1.3976488
-0.59877974 0.481543 1.3973746
-0.59180748 0.48226061 1.3957975
-0.51500463 0.48226595 1.3958129
-0.5076018 0.48241106 1.3962364
-0.5025332 0.48150674 1.3984848
-0.59877104 0.4853197 1.3973544
-0.59380192 0.48790094 1.3975265
-0.51990807 0.48969549 1.3954551
-0.512981 0.48777512 1.3971663
-0.50696993 0.48553163 1.3979647
-0.58925492 0.49083549 1.3987037
-0.57035404 0.49481046 1.3956795
-0.53631556 0.49477041 1.3955666
-0.52517009 0.49242568 1.3960575
-0.52342242 0.49315217 1.3981172
-0.51727331 0.4907797 1.3985448
-0.57653117 0.49579155 1.3984468
-0.57343674 0.49529809 1.3970549
-0.55632615 0.49829665 1.3983963
-0.5520885 0.49788842 1.3972507
-0.54903591 0.49854982 1.3991067
-0.53200591 0.49544668 1.3974741
-0.52898955 0.49616444 1.3994986
-0.61179042 0.47879195 1.4040899
-0.60692078 0.47921467 1.4016199
-0.4967773 0.47905856 1.4030169
-0.60819989 0.48175502 1.4016534
-0.60426539 0.48011863 1.4042639
-0.50088465 0.48444277 1.4021132
-0.49824303 0.48180458 1.4017977
-0.59860778 0.48977 1.4028802
-0.508461 0.48948947 1.4020767
-0.50369722 0.48724625 1.4029014
-0.58582193 0.49472219 1.4025682
-0.52101785 0.49446219 1.4018312
-0.51382405 0.49231035 1.4029064
-0.5598129 0.49915594 1.4008077
-0.54605031 0.49928266 1.4011633
-0.52755618 0.49719322 1.4024004
-0.54315573 0.50010842 1.4034806
-0.61671597 0.47703278 1.4076214
-0.6141119 0.47679493 1.4094177
-0.6098609 0.47799909 1.4054813
-0.49205577 0.47767019 1.4070066
-0.48837402 0.4773612 1.4085885
-0.60124469 0.4843007 1.40906
-0.49592096 0.48323756 1.4059669
-0.49310032 0.48209679 1.4075713
-0.50173408 0.48903197 1.4080429
-0.49874789 0.48605707 1.4067855
-0.51071084 0.49419671 1.408282
-0.50608277 0.49086222 1.4060087
-0.52631462 0.49841362 1.4058427
-0.5181753 0.49658614 1.4078526
-0.56404918 0.50067288 1.4050648
-0.54169017 0.50109512 1.4062498
-0.62410575 0.47350356 1.4147793
-0.62153798 0.47506887 1.4118453
-0.61857074 0.47572556 1.4137969
-0.60962212 0.47980696 1.4107971
-0.48635894 0.47744602 1.4113457
-0.48376074 0.47696614 1.4124349
-0.49017894 0.4825398 1.4113454
-0.48735994 0.48225671 1.4142475
-0.49687207 0.4879556 1.4122803
-0.49313328 0.48548779 1.4125139
-0.50508332 0.49236083 1.4103013
-0.50069994 0.49050757 1.4122915
-0.62710065 0.47224516 1.4186672
-0.62210649 0.47392505 1.4160388
-0.48275024 0.4738102 1.4156954
-0.47891709 0.47294632 1.4182137
-0.61685896 0.47864014 1.4186578
-0.48133865 0.47792962 1.4178113
-0.60654318 0.48395759 1.4154922
-0.48623773 0.48367858 1.418419
-0.60283589 0.48764431 1.4187882
-0.49189228 0.48678172 1.4162785
-0.50230217 0.49335593 1.4168146
-0.49542063 0.49030003 1.4190657
-0.50970715 0.49693254 1.4160781
-0.62870812 0.47089005 1.4223052
-0.62428766 0.47302291 1.4210036
-0.47587821 0.47202981 1.4218745
-0.47383112 0.47126293 1.4234315
-0.62138462 0.47532722 1.4202282
-0.4786824 0.47740108 1.4225843
-0.61547571 0.48184428 1.4243437
-0.61182368 0.48355877 1.4218287
-0.48190555 0.48190555 1.4245249
-0.60788715 0.48708081 1.4246271
-0.49084556 0.48828238 1.4206446
-0.59869993 0.49101084 1.421123
-0.63534462 0.46780956 1.428571
-0.6329245 0.46900663 1.4269906
-0.47237372 0.46894208 1.426793
-0.62852585 0.47139376 1.427718
-0.62420559 0.47491106 1.4266758
-0.47241172 0.47241172 1.4269053
-0.6213274 0.47725147 1.4259777
-0.61840177 0.47955063 1.4251646
-0.47696823 0.47696823 1.4251314
-0.61512589 0.48358953 1.4295027
-0.48465011 0.48465011 1.4250376
-0.61207306 0.48579273 1.4283973
-0.48774141 0.48774141 1.4265592
-0.60360169 0.49034595 1.4266485
-0.59907216 0.49342936 1.4281229
-0.49565101 0.49307621 1.4271008
-0.63605148 0.46669686 1.4330689
-0.63264 0.46962848 1.4341255
-0.46811008 0.46724856 1.4321218
-0.62848133 0.47330016 1.4334919
-0.47136074 0.47394353 1.4315282
-0.4692865 0.47187212 1.4330813
-0.62260687 0.47793406 1.4318779
-0.47628787 0.47886938 1.4308119
-0.47379491 0.47637689 1.4310793
-0.61812568 0.48133793 1.4304762
-0.48195162 0.48453581 1.4323
-0.47898605 0.48156819 1.4311604
-0.61309779 0.4863382 1.4338061
-0.60842699 0.48958349 1.431947
-0.64006865 0.463498 1.4391929
-0.63850838 0.46495846 1.4356847
-0.46618614 0.46358901 1.4394755
-0.63670295 0.4655323 1.4374566
-0.634193 0.46818748 1.437646
-0.46639121 0.46639323 1.4374422
-0.631841 0.47096154 1.4381964
-0.62944734 0.47370777 1.4386562
-0.46772298 0.47031423 1.4362197
-0.62684107 0.47629538 1.4386319
-0.62381852 0.47856346 1.4376479
-0.47353524 0.47872466 1.4381322
-0.62079495 0.48082447 1.4366535
-0.61772406 0.48304206 1.4355407
-0.47611302 0.48130226 1.438081
-0.61249048 0.48791507 1.4384551
-0.60773122 0.49110901 1.4364089
-0.64163655 0.46203038 1.4427184
-0.63905287 0.46334428 1.4427619
-0.46366918 0.46280137 1.4424208
-0.63653779 0.46601176 1.4429615
-0.63339728 0.46952036 1.4417388
-0.46457529 0.46717796 1.442538
-0.63099813 0.47227281 1.4422007
-0.62856072 0.47499928 1.4425786
-0.62608039 0.47769544 1.4428607
-0.47101682 0.47622144 1.4423425
-0.62188411 0.48137385 1.4421837
-0.61720687 0.48466983 1.4403782
-0.48056215 0.48577148 1.4436522
-0.6447956 0.45907354 1.4498215
-0.46174437 0.45912823 1.4499942
-0.64231527 0.46084869 1.4471817
-0.63889802 0.46382168 1.4483118
-0.4618572 0.46185866 1.4476167
-0.63653463 0.46661779 1.4488801
-0.63454235 0.46872705 1.4473214
-0.46299139 0.46559978 1.4457191
-0.63144684 0.47217083 1.447207
-0.62917799 0.4748266 1.4499993
-0.46763709 0.47286209 1.447993
-0.62635726 0.47759753 1.4465063
-0.62252426 0.48157534 1.4466959
-0.61977434 0.48407641 1.4463699
-0.61658108 0.48622569 1.445002
-0.64630169 0.45752391 1.4532079
-0.64365375 0.45881501 1.4531492
-0.46015468 0.45753273 1.4532359
-0.45943859 0.45943859 1.4509743
-0.6411624 0.46153063 1.4534447
-0.45980316 0.46242312 1.4521257
-0.63690573 0.46654034 1.4527082
-0.63198847 0.4720248 1.453455
-0.46515626 0.47039747 1.4524791
-0.62681168 0.4774251 1.4526011
-0.6222105 0.48205063 1.4520588
-0.61879522 0.48535523 1.4501909
-0.64689338 0.45624387 1.4574946
-0.64336264 0.4578521 1.4584327
-0.46180069 0.45653802 1.4584342
-0.45848811 0.45717359 1.4562705
-0.64063275 0.46172914 1.4582082
-0.63901305 0.46414018 1.4575176
-0.63669598 0.4669992 1.4582338
-0.63481283 0.46920949 1.4569275
-0.46352768 0.46878013 1.4555943
-0.63230622 0.47192916 1.4572086
-0.62975228 0.47461498 1.4573827
-0.62716597 0.47727725 1.4574829
-0.62453914 0.47990903 1.4574895
-0.62186414 0.48250347 1.4573832
-0.64722329 0.4536275 1.4631972
-0.4585866 0.45418951 1.4621722
-0.64500695 0.45506623 1.46216
-0.64213806 0.45885739 1.4616346
-0.4583452 0.4583452 1.4642074
-0.64041805 0.46083692 1.4637308
-0.63877726 0.46324652 1.4630003
-0.63713515 0.46564952 1.4622574
-0.63481331 0.46852124 1.4629865
-0.63191015 0.472285 1.4623802
-0.62748379 0.47709858 1.4623108
-0.64668316 0.4518837 1.4689658
-0.6446541 0.4540377 1.4673617
-0.4577682 0.45246992 1.4680034
-0.64192224 0.45795041 1.467173
-0.63801694 0.46329096 1.46732
-0.46677405 0.46148482 1.4657887
-0.63583958 0.46663484 1.4653516
-0.63401186 0.46855885 1.4672403
-0.63163358 0.47140679 1.4678653
-0.62972665 0.47328928 1.4695956
-0.62744755 0.47654277 1.4673665
-0.64905024 0.44995508 1.4713258
-0.64697617 0.4503592 1.4726472
-0.64446288 0.45311722 1.4729756
-0.45687068 0.45023078 1.4722272
-0.64229316 0.45637813 1.4720653
-0.63994819 0.45900649 1.4748203
-0.46346447 0.45549661 1.4720765
-0.63780767 0.46253252 1.4719292
-0.63556302 0.46572572 1.47083
-0.63308364 0.46827829 1.473296
-0.47165167 0.46633729 1.4727614
-0.63077629 0.47142226 1.4720451
-0.62832665 0.47423387 1.4725286
-0.62726885 0.47608778 1.4700495
-0.64784849 0.44789433 1.477668
-0.64466196 0.44979522 1.4795318
-0.45787022 0.44809911 1.4768778
-0.64547032 0.4511638 1.4752781
-0.64298874 0.45369184 1.477733
-0.46292585 0.45225319 1.4788405
-0.6409744 0.45707738 1.4771854
-0.63949597 0.45792717 1.4799317
-0.63697517 0.46240613 1.4771826
-0.46856642 0.46055672 1.4798013
-0.63276887 0.46735087 1.4787725
-0.63043892 0.47049668 1.4774787
-0.6286732 0.47283784 1.4764652
-0.47557142 0.47024289 1.4766817
-0.6467886 0.44619879 1.4823664
-0.64383221 0.44840705 1.4837714
-0.46101007 0.44764745 1.4812579
-0.45875147 0.44537681 1.4825957
-0.64202452 0.45209235 1.4826906
-0.46482 0.4514246 1.4848914
-0.64020073 0.45575878 1.4815627
-0.6382826 0.45763582 1.4833171
-0.46674129 0.45604238 1.4824846
-0.63640147 0.46125817 1.4820552
-0.63406223 0.46417719 1.4828379
-0.47208896 0.46406478 1.4824789
-0.63115519 0.46790251 1.4833401
-0.47546726 0.46743122 1.4846759
-0.62902498 0.47143483 1.4804248
-0.64649284 0.44396132 1.4868135
-0.64368111 0.44479841 1.489617
-0.46003357 0.44393909 1.4867392
-0.45761457 0.44419479 1.4875954
-0.64328176 0.4474813 1.4866256
-0.46278027 0.44668359 1.4869457
-0.45683569 0.44611812 1.4850634
-0.64040935 0.45110518 1.4882594
-0.63934946 0.45438042 1.4857963
-0.63665938 0.45753515 1.4873422
-0.47038481 0.45966378 1.4855441
-0.46860346 0.45517644 1.4883993
-0.63369757 0.46196893 1.4872135
-0.47388226 0.46314272 1.4881103
-0.63161737 0.46533167 1.486526
-0.62890285 0.46776065 1.4885664
-0.62843996 0.47032502 1.4853553
-0.64609814 0.4414998 1.4920995
-0.6436885 0.44304156 1.4927529
-0.46139616 0.44256365 1.4911427
-0.4589119 0.44141513 1.4918127
-0.64140528 0.44660458 1.4926633
-0.63991177 0.44861183 1.4933646
-0.46471027 0.44585246 1.4931469
-0.63806105 0.45229656 1.4921898
-0.47043151 0.45425624 1.4942056
-0.46670559 0.4505659 1.4909151
-0.63618875 0.45595768 1.4909539
-0.63355356 0.4584398 1.4931979
-0.47219142 0.45873868 1.4912497
-0.63177043 0.46228227 1.4911089
-0.62944567 0.46365941 1.4941037
-0.47564068 0.46216646 1.4936322
-0.62829995 0.46685243 1.4913841
-0.4772191 0.46646485 1.490146
-0.64355838 0.43940479 1.4987211
-0.46232849 0.43934637 1.4985218
-0.64229006 0.4424468 1.4968153
-0.63964176 0.44490939 1.4990463
-0.46643013 0.44479859 1.498673
-0.46287179 0.4412801 1.4959117
-0.63824385 0.44816676 1.4978844
-0.46858403 0.44967863 1.4969158
-0.63604146 0.45238411 1.4969383
-0.63443583 0.45316842 1.4995267
-0.47224024 0.45329651 1.4999505
-0.63266677 0.45705137 1.4974756
-0.47399598 0.457791 1.4969487
-0.63057947 0.46044457 1.4967951
-0.62784904 0.46288672 1.4988741
-0.47741219 0.46118289 1.4991952
-0.62738758 0.4654811 1.4956237
-0.47895557 0.46546385 1.4955683
-0.64235419 0.4377228 1.5022285
-0.63933545 0.43844023 1.5046908
-0.46324435 0.43703043 1.5029587
-0.64038503 0.44136423 1.5007882
-0.63790935 0.44260371 1.5034639
-0.46774036 0.44197947 1.5028827
-0.63646644 0.44674647 1.5021921
-0.6336928 0.44914845 1.5041851
-0.47071505 0.44629756 1.5037235
-0.46982431 0.44816095 1.500878
-0.63257468 0.45253745 1.5028224
-0.47640961 0.45469293 1.5045713
-0.47314849 0.45145687 1.5028354
-0.63114899 0.45643246 1.501364
-0.62860388 0.45868635 1.5028349
-0.47707513 0.45810056 1.5023906
-0.62627423 0.46225071 1.5026665
-0.48178464 0.46278471 1.5044023
-0.64125466 0.43431047 1.5092076
-0.63880777 0.43449825 1.5098602
-0.46709892 0.43441561 1.509573
-0.6411491 0.43603608 1.5057635
-0.63710833 0.43849418 1.5079885
-0.46833619 0.43750545 1.5077076
-0.63613665 0.44176227 1.5067618
-0.63406992 0.44357634 1.5083134
-0.47205883 0.44348913 1.5080162
-0.63237745 0.44742423 1.5075226
-0.47451782 0.44868314 1.5071847
-0.63000613 0.45039317 1.5083536
-0.62852752 0.45303029 1.508073
-0.47733706 0.45285824 1.5075003
-0.62689686 0.45623493 1.5074253
-0.62459153 0.45857808 1.5084217
-0.48055843 0.45605403 1.5090752
-0.47960976 0.45787108 1.5060961
-0.62590897 0.46026713 1.5050455
-0.62401056 0.46087056 1.5070187
-0.48274449 0.460987 1.5073994
-0.63661319 0.43366101 1.5132796
-0.46819469 0.43270472 1.5131143
-0.46466848 0.43468988 1.5105261
-0.63622671 0.43732074 1.5101998
-0.6339736 0.43736482 1.5134954
-0.47081429 0.43533263 1.5127596
-0.63253188 0.44154492 1.5122248
-0.62974548 0.44396374 1.5142707
-0.47681439 0.44402486 1.5144792
-0.4734062 0.44066343 1.5123205
-0.63106877 0.44570085 1.5108978
-0.62824112 0.4480941 1.5128425
-0.47755039 0.44753301 1.5124805
-0.62671167 0.45219615 1.5113481
-0.62411189 0.45340234 1.5138597
-0.48150808 0.45422718 1.5120573
-0.47826996 0.45101812 1.5104465
-0.62243694 0.45784792 1.5120052
-0.48419431 0.45827833 1.5119267
-0.63638234 0.43109772 1.5170662
-0.6328696 0.43287188 1.5184908
-0.47571948 0.434591 1.5197104
-0.47217721 0.43248564 1.5171387
-0.46932161 0.43100965 1.5167563
-0.63171166 0.4374094 1.5168066
-0.62906539 0.43856367 1.5192263
-0.47519547 0.43685114 1.5180364
-0.47429955 0.43876126 1.5151744
-0.63025802 0.44159079 1.5155032
-0.62757891 0.44318464 1.5178434
-0.47805822 0.44107282 1.5184299
-0.62629288 0.44656995 1.5169398
-0.62424189 0.44901571 1.5174992
-0.48056149 0.44633228 1.5176835
-0.62179476 0.45196539 1.5182076
-0.48651049 0.45361963 1.519159
-0.48293933 0.45147169 1.5165517
-0.62097794 0.45547569 1.5162134
-0.61803937 0.45633504 1.5190741
-0.48565349 0.45555666 1.5164829
-0.63521492 0.42942175 1.5208244
-0.63148278 0.4290781 1.5228549
-0.47278866 0.42884853 1.5220413
-0.62835759 0.43273443 1.5228304
-0.47765017 0.43185344 1.5229492
-0.62636966 0.43681055 1.52267
-0.62309098 0.43877709 1.5247289
-0.48261935 0.43861985 1.5241826
-0.47917718 0.43661341 1.5219839
-0.62682313 0.44028497 1.5204362
-0.62286913 0.44263092 1.5228448
-0.48520601 0.44397038 1.5236697
-0.48180634 0.44199818 1.521615
-0.62243575 0.4468185 1.5208883
-0.61881632 0.44842449 1.5232366
-0.48799774 0.44813228 1.523803
-0.48434538 0.44729835 1.5209672
-0.61766434 0.45295388 1.5215279
-0.61472863 0.45245129 1.5244575
-0.49042797 0.45333588 1.5228124
-0.48710611 0.45143074 1.5210189
-0.62706 0.42722762 1.5277011
-0.62458009 0.42879558 1.5283728
-0.48133385 0.42754483 1.5288341
-0.47801825 0.42704663 1.527054
-0.62626928 0.4308182 1.5257701
-0.62300521 0.43279576 1.5278938
-0.61972082 0.43477073 1.5299919
-0.48278251 0.43225256 1.5275965
-0.6219694 0.43744445 1.5264784
-0.61914051 0.43849993 1.5285591
-0.48660055 0.43835327 1.528049
-0.48315427 0.436353 1.5258719
-0.6206224 0.44172901 1.5254229
-0.61749536 0.44244561 1.5279033
-0.48803321 0.44303966 1.5267786
-0.61645061 0.44661674 1.5264531
-0.61294049 0.44740534 1.5291466
-0.49225104 0.44674802 1.5284731
-0.61517251 0.4500255 1.5255581
-0.61220461 0.45146063 1.5273119
-0.49356332 0.45132264 1.5268431
-0.62249231 0.42467844 1.5334203
-0.48586714 0.42496073 1.5344396
-0.48258021 0.42450467 1.5327928
-0.62168759 0.42827374 1.5314386
-0.61876053 0.42773378 1.534456
-0.48523831 0.42717561 1.5324537
-0.48472303 0.42948395 1.5308263
-0.62009728 0.43227273 1.5309213
-0.61745578 0.43208101 1.5335087
-0.48795223 0.4326582 1.5322937
-0.61640823 0.43673778 1.5320519
-0.61307198 0.43869936 1.5340768
-0.49200782 0.43759561 1.5334425
-0.61244631 0.44240013 1.5325161
-0.60786366 0.44447437 1.5349034
-0.49680606 0.44421935 1.5340228
-0.49230132 0.44164267 1.5314866
-0.6118232 0.44609234 1.5309521
-0.60840142 0.44800472 1.5327713
-0.60482937 0.4498159 1.5342312
-0.50257754 0.4499661 1.5347435
-0.49769866 0.44792706 1.5325066
-0.60881335 0.451433 1.5303295
-0.62257898 0.42291 1.5370482
-0.61856067 0.42300701 1.5374007
-0.61379635 0.42354757 1.5393655
-0.49304327 0.42360058 1.5395581
-0.48823196 0.42304146 1.5375259
-0.48367372 0.4226948 1.5362661
-0.61755151 0.42632785 1.5360404
-0.61334598 0.42739958 1.5382363
-0.60979092 0.42921504 1.5397699
-0.49573505 0.42908159 1.5392911
-0.49252936 0.42732078 1.5379534
-0.48915792 0.42680022 1.5360798
-0.61632258 0.43073332 1.5352795
-0.61276305 0.43253866 1.536774
-0.60852575 0.43360373 1.5389131
-0.49626145 0.43336105 1.538052
-0.49184123 0.43226558 1.5358045
-0.61181396 0.43727398 1.5355514
-0.60756123 0.4383319 1.5376438
-0.60428244 0.43758383 1.5398914
-0.50115466 0.43868333 1.5388772
-0.4978058 0.43817949 1.5371097
-0.49464965 0.43645558 1.535921
-0.60656023 0.44302467 1.5362788
-0.60294884 0.44191584 1.5388522
-0.50151962 0.44327691 1.5371561
-0.49721041 0.44181091 1.5352713
-0.60520244 0.44732353 1.5351775
-0.60191274 0.44658041 1.5373883
-0.59843659 0.44709137 1.5391474
-0.50656915 0.44689053 1.5384566
-0.50323969 0.44639933 1.5367656
-0.60904509 0.41950244 1.5449249
-0.49753299 0.41948861 1.544874
-0.49457327 0.4193424 1.5443355
-0.61582774 0.42120948 1.5409725
-0.61142379 0.42229486 1.5415522
-0.60707778 0.42328364 1.543468
-0.50015068 0.42213276 1.5443503
-0.49768326 0.42347082 1.5424585
-0.49210751 0.42121035 1.5409756
-0.6100738 0.42663476 1.5404842
-0.60650474 0.42844838 1.5420111
-0.60321778 0.42768559 1.5442785
-0.5028581 0.42763835 1.5441079
-0.49821767 0.42777148 1.541242
-0.60720479 0.43212971 1.5402567
-0.60227603 0.43186826 1.5432969
-0.50568908 0.43185517 1.5442455
-0.5023095 0.43134558 1.5424232
-0.49875027 0.43206501 1.5400261
-0.60295826 0.43611374 1.5412421
-0.59794581 0.43752876 1.5436182
-0.51143569 0.43897069 1.5447718
-0.50722027 0.43668222 1.5432514
-0.5032258 0.43649977 1.5409676
-0.60164058 0.44046202 1.5402406
-0.59799409 0.4422375 1.5415876
-0.59367484 0.44328344 1.5436147
-0.58953685 0.44459161 1.544934
-0.51183337 0.44315529 1.5431685
-0.50743926 0.44209719 1.5410991
-0.50430107 0.44039515 1.5400068
-0.59629685 0.44618014 1.540794
-0.5939669 0.44651845 1.5419623
-0.51179397 0.4464283 1.541651
-0.61191589 0.41955963 1.5451355
-0.6058259 0.41877317 1.5473857
-0.60323352 0.41891181 1.5478965
-0.5998475 0.41807553 1.5499687
-0.50224227 0.41845572 1.5479313
-0.60234523 0.42187417 1.5468096
-0.59810227 0.42202544 1.5490711
-0.51016939 0.42351049 1.5493906
-0.50712895 0.4219085 1.5486424
-0.5037365 0.42140785 1.546805
-0.60187477 0.42619261 1.5456004
-0.59758043 0.42724216 1.54772
-0.59303004 0.42811835 1.5492057
-0.51587903 0.42920014 1.5497472
-0.51289588 0.4276458 1.5491823
-0.50810546 0.4271425 1.5473593
-0.50320637 0.42514664 1.5451772
-0.59700352 0.43240917 1.5462258
-0.59212971 0.43292496 1.5480701
-0.58749336 0.43374804 1.5493468
-0.52151096 0.43482548 1.5498654
-0.51699656 0.43315852 1.5489055
-0.5123322 0.43275976 1.5474796
-0.50907379 0.43236351 1.5460632
-0.59536541 0.4364154 1.5455929
-0.59156066 0.43808964 1.5465823
-0.58654737 0.43851388 1.5480801
-0.58293301 0.43754926 1.5496085
-0.52212268 0.43828392 1.5489134
-0.51792586 0.43835187 1.5475085
-0.51383394 0.43757224 1.5463967
-0.59235883 0.44183001 1.5450243
-0.58807635 0.44303289 1.5459801
-0.58247465 0.44139573 1.5483928
-0.57854068 0.44298911 1.5490775
-0.52787566 0.44214788 1.5493952
-0.52207541 0.44250572 1.5473919
-0.51726031 0.44336545 1.5455198
-0.51433837 0.4418571 1.545119
-0.58451343 0.44501144 1.5463929
-0.59698099 0.41681242 1.5522113
-0.59246862 0.41738921 1.5526202
-0.58817732 0.41812432 1.5536155
-0.58473897 0.41927329 1.5544093
-0.52121747 0.418376 1.5545493
-0.51712382 0.41762251 1.5534868
-0.51253688 0.41731045 1.5523268
-0.50803208 0.41706109 1.5514003
-0.59314013 0.42247242 1.5507116
-0.5881452 0.4229044 1.5522974
-0.58313692 0.42333496 1.5538778
-0.57925278 0.42497239 1.5547389
-0.52581656 0.42485976 1.5543269
-0.52281523 0.42329773 1.5537415
-0.5181151 0.42289323 1.5522566
-0.51242048 0.4219656 1.5505623
-0.59153259 0.42651877 1.5501641
-0.58765441 0.42814821 1.551002
-0.58264065 0.42857695 1.5525553
-0.57774782 0.42770192 1.5544642
-0.52648354 0.42838001 1.553535
-0.5222615 0.42845005 1.5520959
-0.51814204 0.42766508 1.5509409
-0.58600718 0.43216279 1.5503447
-0.58256912 0.43331194 1.5511222
-0.57734787 0.43160954 1.5533882
-0.57213628 0.43190658 1.5544574
-0.56659257 0.43335927 1.554637
-0.54285496 0.43344235 1.554935
-0.53849792 0.43332246 1.5545049
-0.53280956 0.43185565 1.5542742
-0.52821654 0.43153989 1.5531379
-0.52338207 0.4324196 1.551266
-0.58056086 0.4364695 1.5507402
-0.57678342 0.43678731 1.5518694
-0.571594 0.43710101 1.5529839
-0.56753552 0.43721217 1.5533788
-0.56347442 0.43732315 1.5537732
-0.55805653 0.43747118 1.5542991
-0.55204576 0.43799034 1.5544826
-0.5467869 0.43742901 1.5541494
-0.5424329 0.43730986 1.553726
-0.53808165 0.43719086 1.5533032
-0.53221512 0.43697602 1.5525398
-0.52758056 0.43661797 1.5512679
-0.52462542 0.43508932 1.5508058
-0.57633466 0.44064444 1.550662
-0.57363307 0.44211707 1.550923
-0.56845212 0.44104052 1.5520557
-0.56303895 0.44118732 1.5525724
-0.55762219 0.44133425 1.5530894
-0.55211985 0.44141558 1.5533756
-0.54778236 0.44130802 1.5529971
-0.54343402 0.44118991 1.5525814
-0.53763962 0.44103235 1.552027
-0.53213882 0.44166085 1.5509571
-0.5856598 0.41431567 1.556857
-0.5816797 0.41448209 1.5574822
-0.57641685 0.41473901 1.5584478
-0.57233113 0.41483462 1.558807
-0.56824505 0.41493154 1.5591712
-0.5372746 0.41491091 1.5590937
-0.53147662 0.41477665 1.5585892
-0.52704376 0.41460776 1.5579545
-0.52254415 0.41438293 1.5571098
-0.51815522 0.41424331 1.5565851
-0.58500463 0.41665798 1.5551155
-0.58234918 0.41816854 1.555517
-0.57857943 0.41848704 1.5567017
-0.5734126 0.41741073 1.557925
-0.56799746 0.4175626 1.5584918
-0.56268597 0.41638744 1.5593569
-0.55715096 0.41786334 1.5596142
-0.55015016 0.417889 1.55971
-0.54722983 0.41780788 1.5594072
-0.5429666 0.4163678 1.5592836
-0.53701794 0.41752428 1.5583488
-0.5326432 0.41740113 1.5578891
-0.52804494 0.41850299 1.5567613
-0.5234704 0.41681156 1.5556886
-0.57823962 0.42245203 1.5557876
-0.57309413 0.42139259 1.5570598
-0.56767833 0.42154318 1.5576161
-0.56225866 0.42169386 1.5581729
-0.55683511 0.4218446 1.5587301
-0.55273324 0.42193347 1.5590584
-0.54835558 0.42181158 1.5586081
-0.54252243 0.4216491 1.5580077
-0.53669375 0.42148682 1.5574081
-0.53232509 0.4213652 1.5569587
-0.52766263 0.42241043 1.5556343
-0.57673907 0.42518723 1.5555248
-0.57263631 0.42667001 1.5558158
-0.56722158 0.42681998 1.5563627
-0.56180304 0.42697012 1.5569103
-0.55687314 0.42667052 1.5575256
-0.55313224 0.42761174 1.5575422
-0.54787558 0.42706156 1.5572438
-0.5420512 0.42690003 1.5566547
-0.53768563 0.42677885 1.5562129
-0.53332269 0.42665774 1.5557711
-0.52895474 0.42512807 1.5553085
-0.56685412 0.43075305 1.5553545
-0.56180137 0.43175888 1.5556093
-0.55810064 0.43272665 1.5557252
-0.55312198 0.43238938 1.5561951
-0.54735219 0.43226743 1.5557561
-0.54167271 0.43081212 1.5555676
-0.53731185 0.43069124 1.5551312
-0.55413061 0.43629017 1.555086
-0.57166231 0.41255438 1.5608206
-0.56749922 0.41259867 1.5609881
-0.56334209 0.41264814 1.5611752
-0.55782437 0.41273373 1.561499
-0.55226123 0.41278708 1.5617008
-0.5465095 0.41269916 1.5613682
-0.54220313 0.41263768 1.5611356
-0.5379082 0.41258401 1.5609326
-0.53220999 0.4125331 1.56074
-0.52794945 0.41250449 1.5606318
-0.55735838 0.41520393 1.5601947
-0.55224061 0.41617438 1.560316
-0.54745084 0.41516197 1.560037
