# .PCD v0.7 - Point Cloud Data file format
VERSION 0.7
FIELDS x y z
SIZE 4 4 4
TYPE F F F
COUNT 1 1 1
WIDTH 1473
HEIGHT 1
VIEWPOINT 0 0 0 1 0 0 0
POINTS 1473
DATA ascii
0.14240679 0.3440164 1.7736995
0.07196527 0.34703252 1.7727594
0.13272636 0.34700748 1.7726315
0.13598983 0.34717405 1.7734824
0.12631446 0.35016289 1.7724148
0.043222316 0.32496777 1.7745311
0.17765363 0.32489809 1.7741506
0.18094148 0.32505414 1.7750028
0.18423249 0.32521039 1.775856
0.043257054 0.32843319 1.7759575
0.046426259 0.32818562 1.7746187
0.1745151 0.32821646 1.7747855
0.17780262 0.32837421 1.7756385
0.049631592 0.33141094 1.7747446
0.16809028 0.33137798 1.7745682
0.17137432 0.33153722 1.7754209
0.052837379 0.33463675 1.7748706
0.16166705 0.33453873 1.7743509
0.1649476 0.33469948 1.7752035
0.056043625 0.337863 1.7749966
0.15524539 0.33769873 1.7741337
0.15852244 0.33786097 1.774986
0.16180265 0.33802333 1.7758391
0.059250321 0.3410897 1.7751226
0.15209886 0.34102166 1.7747686
0.15537558 0.34118554 1.7756215
0.062457476 0.34431684 1.7752486
0.14567687 0.3441816 1.7745513
0.14895009 0.34434697 1.775404
0.065665081 0.34754446 1.7753747
0.068817504 0.34728834 1.7740662
0.13925643 0.34734076 1.7743341
0.14252618 0.34750763 1.7751865
0.040067915 0.32535148 1.7766263
0.18752666 0.32536677 1.7767099
0.190824 0.32552329 1.7775646
0.18109329 0.32853207 1.7764921
0.18438713 0.32869011 1.7773467
0.043291852 0.3319042 1.7773861
0.04646381 0.33165547 1.7760541
0.1746615 0.33169663 1.7762744
0.17795184 0.33185613 1.7771287
0.18124536 0.33201584 1.7779839
0.04650142 0.33513093 1.7774918
0.049671739 0.33488366 1.7761803
0.16823129 0.33486038 1.7760568
0.17151813 0.33502141 1.7769109
0.17480814 0.33518258 1.7777658
0.04971195 0.33836198 1.7776182
0.052880123 0.33811229 1.7763064
0.165086 0.33818588 1.776693
0.16837251 0.33834857 1.7775477
0.052922934 0.34159347 1.7777445
0.056088962 0.34134141 1.7764326
0.15865543 0.34134957 1.7764752
0.16193847 0.34151378 1.7773298
0.05613438 0.34482548 1.777871
0.059298262 0.34457096 1.7765589
0.15222646 0.34451252 1.7762575
0.155506 0.34467822 1.7771119
0.15878867 0.34484407 1.777967
0.062508017 0.347801 1.7766851
0.14579906 0.34767467 1.7760398
0.14907509 0.34784189 1.776894
0.15235427 0.34800923 1.7777488
0.033709548 0.32264853 1.7793976
0.036903527 0.32250473 1.7786045
0.040112525 0.3225047 1.7786044
0.04332152 0.32250464 1.7786041
0.046530511 0.32250458 1.7786037
0.049739517 0.32250461 1.7786039
0.052948534 0.32250473 1.7786045
0.056157552 0.32250482 1.778605
0.059366573 0.32250488 1.7786055
0.062575594 0.322505 1.7786061
0.065784618 0.32250509 1.7786065
0.1235472 0.32250631 1.7786133
0.12675601 0.3225058 1.7786105
0.12996481 0.32250527 1.7786076
0.13317361 0.32250476 1.7786047
0.13638249 0.32250449 1.7786032
0.1395915 0.32250449 1.7786033
0.1428005 0.32250449 1.7786033
0.1460095 0.32250452 1.7786034
0.14921851 0.32250452 1.7786034
0.15242752 0.32250455 1.7786036
0.15563652 0.32250455 1.7786036
0.15884553 0.32250458 1.7786037
0.16205454 0.32250458 1.7786037
0.16526355 0.32250458 1.7786038
0.16847254 0.32250458 1.7786038
0.17168155 0.32250461 1.7786039
0.17489056 0.32250461 1.7786039
0.17809957 0.32250464 1.778604
0.18130857 0.32250464 1.778604
0.18451759 0.32250464 1.7786041
0.18772659 0.32250464 1.7786041
0.1909356 0.32250467 1.7786043
0.19414461 0.32250467 1.7786043
0.19735362 0.3225047 1.7786044
0.20056647 0.32251087 1.7786385
0.20387368 0.3226662 1.7794951
0.036906056 0.32573608 1.7787266
0.19412452 0.32567996 1.7784202
0.19742821 0.32583681 1.7792766
0.040100157 0.3288213 1.778056
0.18768415 0.3288483 1.7782021
0.19098434 0.32900664 1.7790582
0.1942877 0.3291651 1.7799152
0.040132456 0.33229673 1.7794881
0.18454204 0.3321757 1.7788399
0.18784191 0.33233568 1.7796967
0.043326706 0.33538079 1.7788171
0.17810133 0.33534393 1.7786216
0.18139769 0.33550546 1.7794782
0.046539094 0.33861205 1.7789319
0.1716622 0.33851144 1.7784033
0.17495504 0.33867443 1.7792597
0.049752228 0.34184596 1.7790585
0.16522464 0.34167814 1.7781851
0.16851398 0.34184265 1.7790413
0.1718065 0.34200734 1.7798983
0.05296582 0.34508035 1.7791851
0.16207451 0.3450101 1.7788229
0.16536351 0.34517625 1.7796797
0.030535225 0.32303053 1.7815044
0.20718408 0.32282168 1.7803526
0.21050514 0.32298881 1.7812742
0.20073509 0.32599378 1.7801338
0.033736717 0.3261216 1.7808318
0.20404516 0.32615092 1.7809919
0.2073584 0.32630819 1.7818507
0.036935795 0.32921034 1.7801597
0.19759426 0.32932377 1.780773
0.200904 0.32948256 1.7816317
0.036965575 0.33269018 1.7815951
0.19114494 0.33249581 1.7805543
0.19445117 0.33265612 1.7814127
0.040164802 0.33577776 1.7809224
0.18469721 0.3356671 1.7803355
0.18799992 0.3358289 1.7811937
0.043361615 0.33886302 1.7802503
0.17825106 0.33883759 1.7801168
0.18155025 0.33900091 1.7809749
0.18485263 0.33916438 1.7818336
0.043396734 0.342352 1.781692
0.046576831 0.3420988 1.7803743
0.17510217 0.34217215 1.780756
0.17840104 0.34233713 1.7816147
0.046614625 0.34559119 1.781819
0.049792569 0.34533557 1.780501
0.16865569 0.34534261 1.7805372
0.17195104 0.34550908 1.7813957
0.027358912 0.32026023 1.7839772
0.030577604 0.32026017 1.7839769
0.033796296 0.32026014 1.7839768
0.037014991 0.32026014 1.7839767
0.040233679 0.32026008 1.7839764
0.043452363 0.32025999 1.783976
0.046671044 0.32025993 1.7839755
0.049889721 0.32025984 1.783975
0.053108409 0.32025981 1.7839749
0.13357614 0.32026088 1.7839808
0.13679463 0.32026038 1.783978
0.1400132 0.32026008 1.7839764
0.1432319 0.32026008 1.7839764
0.14645061 0.32026011 1.7839766
0.14966929 0.32026011 1.7839766
0.152888 0.32026014 1.7839767
0.1561067 0.32026014 1.7839767
0.15932539 0.32026014 1.7839767
0.1625441 0.32026014 1.7839768
0.1657628 0.32026014 1.7839768
0.16898149 0.32026017 1.7839769
0.17220019 0.32026017 1.7839769
0.1754189 0.3202602 1.783977
0.17863759 0.3202602 1.783977
0.1818563 0.32026023 1.7839772
0.185075 0.32026023 1.7839772
0.18829371 0.32026023 1.7839773
0.19151241 0.32026023 1.7839773
0.19473109 0.32026023 1.7839772
0.19794975 0.32026017 1.7839769
0.20116842 0.32026014 1.7839767
0.20438708 0.32026008 1.7839764
0.20760576 0.32026005 1.7839762
0.21082452 0.32026014 1.7839768
0.21404342 0.32026047 1.7839785
0.2172623 0.32026073 1.78398
0.22048122 0.32026103 1.7839817
0.22370012 0.32026133 1.7839833
0.027353378 0.32341346 1.7836162
0.21383849 0.32316944 1.7822704
0.21717557 0.32335031 1.7832679
0.030559864 0.32650802 1.7829419
0.21068323 0.32647857 1.7827811
0.21401951 0.32666135 1.7837791
0.03376393 0.32960027 1.7822683
0.20421693 0.32964149 1.7824912
0.20753305 0.32980058 1.7833514
0.033791188 0.33308455 1.783707
0.19776058 0.33281657 1.782272
0.20107318 0.33297718 1.7831321
0.20438898 0.33313793 1.7839929
0.1913058 0.33599088 1.7820528
0.036995403 0.33617565 1.7830328
0.19461489 0.33615297 1.7829126
0.19792716 0.33631524 1.7837733
0.040197201 0.33926439 1.782359
0.1881582 0.33932802 1.7826934
0.19146694 0.33949181 1.7835538
0.040229656 0.34275666 1.783798
0.18170308 0.34250227 1.782474
0.18500832 0.34266758 1.7833344
0.043431971 0.34584719 1.7831389
0.17524956 0.34567574 1.7822549
0.17855127 0.34584254 1.7831149
0.024144461 0.32031652 1.7842908
0.22708069 0.32048976 1.7852558
0.024163974 0.32379726 1.7857329
0.22051641 0.32353136 1.7842665
0.22386098 0.32371265 1.7852662
0.027375476 0.32689539 1.7850572
0.21735951 0.3268443 1.7847782
0.22070327 0.3270275 1.7857785
0.030584546 0.32999116 1.7843819
0.21086161 0.32997429 1.7842907
0.21420082 0.33015916 1.7852904
0.030609265 0.33347988 1.7858241
0.20770799 0.33329886 1.7848547
0.21104032 0.33347592 1.7858028
0.033818491 0.33657449 1.7851483
0.20124264 0.3364777 1.7846348
0.20456134 0.3366403 1.7854973
0.037025284 0.33966672 1.7844728
0.19477889 0.33965576 1.7844151
0.19809404 0.33981985 1.7852772
0.037055213 0.34316349 1.7859153
0.18831673 0.34283301 1.7841954
0.19162835 0.34299865 1.7850574
0.19494317 0.34316444 1.7859201
0.020950044 0.32069683 1.7864093
0.020966997 0.32418203 1.7878548
0.22728892 0.3240076 1.7868929
0.024183521 0.32728365 1.7871773
0.22405089 0.32721102 1.7867807
0.02739761 0.33038294 1.7865005
0.21754378 0.33034426 1.7862912
0.22089048 0.33052954 1.7872932
0.027419779 0.33387616 1.7879461
0.21438245 0.33366293 1.7868042
0.21772833 0.33385012 1.7878066
0.030634025 0.33697426 1.7872686
0.20788322 0.33680305 1.7863605
0.21121931 0.3369835 1.7873175
0.20141241 0.33998415 1.7861403
0.033845834 0.34007004 1.7865916
0.20473397 0.34014857 1.7870041
0.20805874 0.34031314 1.7878687
0.1982612 0.34333038 1.7867838
0.20158243 0.34349647 1.7876482
0.014528015 0.3180021 1.7893823
0.017756462 0.31800207 1.7893822
0.020984907 0.31800205 1.789382
0.024213351 0.31800202 1.7893819
0.027441798 0.31800202 1.7893817
0.030670241 0.31800196 1.7893815
0.033898685 0.31800193 1.7893814
0.037127126 0.31800193 1.7893813
0.040355567 0.31800187 1.7893809
0.043584 0.31800178 1.7893804
0.04681243 0.31800169 1.78938
0.1404376 0.31800237 1.7893839
0.14366591 0.31800207 1.7893821
0.14689435 0.31800207 1.7893821
0.15012281 0.31800207 1.7893822
0.15335126 0.31800207 1.7893822
0.15657972 0.3180021 1.7893823
0.15980816 0.3180021 1.7893823
0.16303663 0.31800213 1.7893825
0.16626507 0.31800213 1.7893825
0.16949353 0.31800216 1.7893826
0.17272195 0.3180021 1.7893823
0.17595036 0.31800205 1.789382
0.17917879 0.31800202 1.7893817
0.18240722 0.31800196 1.7893815
0.18563563 0.3180019 1.7893811
0.18886405 0.31800187 1.7893809
0.19209246 0.31800181 1.7893807
0.19532087 0.31800175 1.7893803
0.19854929 0.31800172 1.7893801
0.20177771 0.31800166 1.7893798
0.20500611 0.3180016 1.7893795
0.20823455 0.3180016 1.7893795
0.21146306 0.31800172 1.7893801
0.21469171 0.31800202 1.7893817
0.21792036 0.31800231 1.7893834
0.22114901 0.31800258 1.7893851
0.22437805 0.31800342 1.7893897
0.2276063 0.31800312 1.7893881
0.23083454 0.31800282 1.7893864
0.23413099 0.31809521 1.7899063
0.017748032 0.321078 1.7885326
0.23070703 0.32105386 1.788398
0.01776241 0.32456768 1.7899816
0.020983975 0.32767284 1.7893026
0.22749758 0.32753196 1.7885333
0.024203097 0.33077568 1.788624
0.22424118 0.33071542 1.7882982
0.22107813 0.33403775 1.7888116
0.22443178 0.33422574 1.7898183
0.027441988 0.33737502 1.7893941
0.21456438 0.3371726 1.7883205
0.21791326 0.33736202 1.7893251
0.030658824 0.34047431 1.7887155
0.21139862 0.34049699 1.7888347
0.21474662 0.34068826 1.7898395
0.033873226 0.34357128 1.7880375
0.011311937 0.31835023 1.7913412
0.014538397 0.32146013 1.7906611
0.23434617 0.32161993 1.7915512
0.23091887 0.32457829 1.7900401
0.017776811 0.32806295 1.7914329
0.23113111 0.3281092 1.7916853
0.021000983 0.33116934 1.7907528
0.22770661 0.33106282 1.7901767
0.024222706 0.33427334 1.7900732
0.22791605 0.33460015 1.7918233
0.024242347 0.33777672 1.7915246
0.22126609 0.33755192 1.7903324
0.22462273 0.33774206 1.7913409
0.02746423 0.34087956 1.7908444
0.2180986 0.34088004 1.7908469
0.2214544 0.34107211 1.7918561
0.0080895862 0.31872967 1.7934763
0.23777924 0.31865653 1.7930648
0.011321115 0.32184315 1.7927947
0.014550189 0.32495424 1.7921135
0.23456173 0.32515109 1.7931992
0.014562001 0.32845402 1.7935683
0.017791236 0.33156392 1.7928865
0.23134385 0.33164677 1.7933345
0.021018017 0.3346715 1.7922053
0.021035081 0.33817938 1.7936603
0.22812587 0.338144 1.7934728
0.024262019 0.34128574 1.7929784
0.22481398 0.3412644 1.7928662
0.0048573888 0.31573027 1.7948203
0.0080956463 0.31573021 1.7948201
0.011333904 0.31573021 1.79482
0.014572162 0.31573018 1.7948198
0.017810417 0.31573012 1.7948196
0.021048674 0.31573012 1.7948195
0.024286931 0.31573009 1.7948194
0.027525185 0.31573007 1.7948191
0.03076344 0.31573004 1.794819
0.034001693 0.31573001 1.7948189
0.037239946 0.31572998 1.7948186
0.040478192 0.31572989 1.7948182
0.043716434 0.3157298 1.7948177
0.1473408 0.3157303 1.7948205
0.15057904 0.31573024 1.7948202
0.15381728 0.31573021 1.79482
0.15705551 0.31573015 1.7948197
0.16029374 0.31573009 1.7948194
0.16353197 0.31573007 1.7948191
0.1667702 0.31573001 1.7948189
0.17000844 0.31572995 1.7948185
0.17324667 0.31572992 1.7948183
0.1764849 0.31572986 1.794818
0.17972311 0.3157298 1.7948177
0.18296134 0.31572977 1.7948174
0.18619958 0.31572971 1.7948172
0.18943779 0.31572965 1.7948169
0.19267602 0.31572962 1.7948166
0.19591425 0.31572956 1.7948164
0.19915245 0.3157295 1.794816
0.20239069 0.31572947 1.7948158
0.20562905 0.31572965 1.7948167
0.20886713 0.31572938 1.7948153
0.21210548 0.31572953 1.7948161
0.21534394 0.31572983 1.7948178
0.21858275 0.31573063 1.7948225
0.2218217 0.31573161 1.7948279
0.22505976 0.31573132 1.7948263
0.22829781 0.31573102 1.7948246
0.23153587 0.31573072 1.7948229
0.2347739 0.31573042 1.7948213
0.23801196 0.31573012 1.7948196
0.24124998 0.31572986 1.7948179
0.0048595439 0.31911004 1.7956166
0.0080961576 0.32222706 1.7949333
0.23799817 0.32218799 1.7947156
0.011330308 0.32534173 1.7942505
0.011339517 0.32884601 1.7957088
0.2347777 0.32868877 1.7948502
0.014573832 0.33195949 1.7950255
0.017805684 0.33507061 1.7943425
0.23155701 0.33519092 1.7949868
0.017820155 0.33858296 1.7958009
0.0016204647 0.31599063 1.7963004
0.0016217834 0.31949133 1.797762
0.2414404 0.31921986 1.7962346
0.0048634964 0.32261193 1.7970771
0.24166308 0.32275808 1.7978913
0.0081027402 0.32573014 1.7963927
0.23821747 0.32572594 1.7963694
0.008109333 0.32923892 1.7978544
0.01134874 0.33235598 1.7971693
0.23499405 0.33223298 1.7965043
0.014585681 0.33547068 1.7964849
0.014597551 0.33898759 1.7979469
0.23177053 0.33874154 1.7966421
-0.0016224016 0.31636834 1.7984475
-0.0016237232 0.31987348 1.7999125
0.001623104 0.32299769 1.7992259
0.004867455 0.32611948 1.7985399
0.24189344 0.32631263 1.799605
0.23843719 0.32927042 1.7980263
0.008115937 0.33275342 1.7993184
0.23865731 0.33282143 1.7996862
0.011357979 0.33587167 1.7986324
0.23521084 0.33578375 1.7981615
-0.0081248172 0.31361794 1.8012872
-0.0048721954 0.31344455 1.8002914
-0.0016240649 0.31344453 1.8002912
0.0016240648 0.3134445 1.8002911
0.004872194 0.3134445 1.8002909
0.0081203226 0.31344444 1.8002907
0.011368451 0.31344444 1.8002906
0.014616577 0.31344438 1.8002903
0.017864704 0.31344435 1.8002902
0.021112831 0.31344435 1.8002901
0.024360957 0.31344429 1.8002899
0.027609082 0.31344429 1.8002898
0.030857207 0.31344426 1.8002896
0.034105331 0.31344423 1.8002894
0.037353449 0.31344414 1.800289
0.15103811 0.3134447 1.8002921
0.15428616 0.3134445 1.8002911
0.1575342 0.31344435 1.8002901
0.16078223 0.31344414 1.800289
0.16403028 0.31344402 1.8002882
0.16727838 0.31344396 1.800288
0.17052647 0.3134439 1.8002876
0.17377457 0.31344387 1.8002874
0.17702268 0.31344381 1.8002871
0.18027076 0.31344375 1.8002868
0.18351886 0.31344372 1.8002865
0.18676695 0.31344366 1.8002863
0.19001503 0.3134436 1.8002859
0.19326313 0.31344357 1.8002857
0.19651122 0.31344354 1.8002855
0.1997593 0.31344348 1.8002851
0.20300764 0.31344381 1.800287
0.2062556 0.31344354 1.8002856
0.20950355 0.3134433 1.8002841
0.2127521 0.31344396 1.8002878
0.2160009 0.31344491 1.8002934
0.21924973 0.3134459 1.800299
0.2224977 0.31344566 1.8002977
0.22574562 0.31344536 1.8002959
0.22899348 0.31344497 1.8002937
0.23224133 0.31344458 1.8002915
0.23548922 0.31344429 1.8002898
0.2387373 0.31344423 1.8002894
0.24198538 0.31344414 1.800289
-0.0048730294 0.31674692 1.8005996
-0.0016250471 0.32338437 1.8013799
0.0016244268 0.32650977 1.8006923
0.0048714206 0.32963279 1.8000051
0.24220306 0.32998136 1.8019085
0.0048753927 0.33315185 1.8014729
0.0081225531 0.33627367 1.8007852
0.23887783 0.33637899 1.8013492
-0.011388377 0.31399384 1.8034462
-0.0081314463 0.31712639 1.8027569
-0.0048770038 0.32025656 1.8020681
-0.0048809848 0.32377198 1.8035392
-0.001626373 0.32690099 1.8028498
0.0016257517 0.33002761 1.8021611
0.0016270791 0.3335512 1.8036324
0.0048793717 0.33667666 1.8029431
-0.014661277 0.31114489 1.8057959
-0.011403215 0.31114486 1.8057958
-0.0081451526 0.31114483 1.8057957
-0.004887091 0.3111448 1.8057954
-0.0016290302 0.31114477 1.8057953
0.00162903 0.31114474 1.8057951
0.0048870896 0.31114471 1.805795
0.0081451489 0.31114471 1.8057948
0.011403208 0.31114465 1.8057946
0.014661266 0.31114462 1.8057945
0.017919322 0.31114459 1.8057942
0.021177379 0.31114456 1.8057941
0.024435436 0.31114456 1.805794
0.02769349 0.3111445 1.8057938
0.030951547 0.3111445 1.8057936
0.034209598 0.31114444 1.8057934
0.15150009 0.31114537 1.8057986
0.15475807 0.31114516 1.8057976
0.15801604 0.31114498 1.8057965
0.161274 0.3111448 1.8057954
0.16453196 0.31114462 1.8057944
0.16778992 0.31114444 1.8057933
0.17104788 0.31114423 1.8057922
0.17430584 0.31114408 1.8057913
0.1775638 0.3111439 1.8057903
0.18082176 0.31114376 1.8057894
0.18407978 0.3111437 1.8057891
0.1873378 0.31114364 1.8057888
0.19059582 0.31114361 1.8057885
0.19385384 0.31114358 1.8057883
0.19711186 0.31114352 1.8057879
0.20037007 0.31114376 1.8057895
0.22643532 0.31114495 1.8057963
0.22969328 0.3111448 1.8057954
0.2329513 0.31114474 1.8057951
0.23620929 0.31114465 1.8057946
0.23946731 0.31114459 1.8057942
0.24272531 0.31114453 1.8057939
0.24598332 0.31114447 1.8057935
-0.01465977 0.31437063 1.8056103
0.24575759 0.314114 1.8041364
-0.01139768 0.31750682 1.8049194
-0.0081380866 0.32064059 1.804229
-0.0081447382 0.32416058 1.8057036
-0.0048849727 0.32729319 1.8050127
-0.0016277013 0.33042338 1.8043222
-0.001629032 0.33395156 1.8057972
0.24251346 0.33365947 1.8042178
-0.017924357 0.31123203 1.8063017
-0.017939024 0.31474832 1.8077797
-0.01467176 0.31788814 1.8070871
0.24607302 0.31777641 1.806452
-0.011406999 0.32102555 1.8063951
-0.011416335 0.32455006 1.8078734
-0.0081514008 0.32768631 1.8071808
-0.0048889676 0.33082014 1.8064888
-0.0048929686 0.33435285 1.8079672
-0.021208793 0.31160611 1.8084728
-0.021226168 0.31512696 1.8099543
-0.017953714 0.31827042 1.8092601
-0.014683771 0.32141143 1.8085665
0.24638927 0.32144827 1.8087736
-0.011425684 0.32808036 1.8093541
-0.0081580747 0.33121783 1.8086604
-0.027778612 0.30883279 1.8113443
-0.024510404 0.3088311 1.8113343
-0.02124235 0.3088311 1.8113341
-0.017974293 0.30883104 1.8113339
-0.014706239 0.30883101 1.8113338
-0.011438184 0.30883098 1.8113335
-0.0081701316 0.30883095 1.8113334
-0.0049020783 0.30883095 1.8113333
-0.0016340259 0.30883089 1.8113331
0.0016340258 0.30883089 1.8113329
0.0049020769 0.30883086 1.8113328
0.0081701279 0.30883083 1.8113326
0.011438178 0.3088308 1.8113325
0.014706226 0.30883077 1.8113322
0.017974276 0.30883074 1.8113321
0.021242324 0.30883071 1.811332
0.024510371 0.30883068 1.8113317
0.027778419 0.30883065 1.8113316
0.031046465 0.30883065 1.8113315
0.15523288 0.30883172 1.8113378
0.15850084 0.30883154 1.8113368
0.16176879 0.30883133 1.8113357
0.16503675 0.30883116 1.8113346
0.16830471 0.30883098 1.8113335
0.17157267 0.3088308 1.8113325
0.17484061 0.30883062 1.8113314
0.17810856 0.30883044 1.8113303
0.1813765 0.30883026 1.8113292
0.18464443 0.30883005 1.8113282
0.18791237 0.3088299 1.8113272
0.19118032 0.30882975 1.8113263
0.19444823 0.30882955 1.8113252
0.23039794 0.30883127 1.8113353
0.23366593 0.30883119 1.8113347
0.2369339 0.3088311 1.8113341
0.24020188 0.30883098 1.8113335
0.24346983 0.30883086 1.8113328
0.24673779 0.30883077 1.8113322
-0.024501132 0.31198108 1.810649
-0.021243572 0.31865358 1.8114383
-0.017968431 0.32179826 1.8107431
-0.014695803 0.32494053 1.8100483
0.24670635 0.32512957 1.8111013
-0.014707853 0.32847539 1.8115326
-0.01143505 0.33161643 1.8108371
-0.031084105 0.30920506 1.8135275
-0.027801406 0.31235698 1.8128306
-0.02452123 0.31550649 1.8121343
-0.024541361 0.31903768 1.8136219
-0.021261007 0.32218602 1.812925
-0.01798317 0.3253319 1.8122284
-0.017997935 0.32887137 1.8137164
0.24702424 0.32882035 1.813435
-0.014719924 0.33201605 1.8130193
-0.034399565 0.30959609 1.8158209
-0.031109644 0.3127338 1.8150175
-0.02782424 0.31588697 1.8143195
-0.027847111 0.31942275 1.8158108
-0.024561526 0.3225747 1.8151121
-0.021278467 0.32572424 1.8144139
-0.021295959 0.32926831 1.8159055
-0.037698291 0.3065035 1.8169092
-0.034420155 0.3065033 1.8169079
-0.031142028 0.30650312 1.8169068
-0.027863914 0.30650306 1.8169065
-0.024585802 0.306503 1.8169062
-0.021307694 0.306503 1.8169061
-0.018029587 0.30650297 1.816906
-0.014751478 0.30650294 1.8169057
-0.011473371 0.30650291 1.8169056
-0.0081952643 0.30650288 1.8169055
-0.0049171578 0.30650285 1.8169053
-0.0016390525 0.30650282 1.8169051
0.0016390523 0.30650279 1.8169049
0.0049171569 0.30650276 1.8169048
0.0081952605 0.30650276 1.8169047
0.011473363 0.3065027 1.8169044
0.014751466 0.3065027 1.8169043
0.018029569 0.30650267 1.8169042
0.02130767 0.30650264 1.8169039
0.02458577 0.30650261 1.8169038
0.027863873 0.30650261 1.8169038
0.031141974 0.30650258 1.8169037
0.15898862 0.30650383 1.8169111
0.16226664 0.30650365 1.81691
0.16554466 0.30650347 1.816909
0.16882266 0.3065033 1.8169079
0.17210068 0.30650312 1.8169068
0.17537868 0.30650294 1.8169057
0.17865667 0.30650273 1.8169045
0.18193467 0.30650255 1.8169035
0.18521266 0.30650237 1.8169024
0.18849064 0.30650219 1.8169013
0.19176863 0.30650201 1.8169003
0.19504662 0.30650184 1.8168992
0.23110661 0.30650309 1.8169067
0.23438457 0.30650288 1.8169055
0.23766251 0.3065027 1.8169043
0.2409405 0.30650252 1.8169034
0.24421847 0.30650237 1.8169024
0.24749643 0.30650219 1.8169014
-0.034427889 0.31312984 1.8173161
-0.031135226 0.31626835 1.81651
-0.027870018 0.32296431 1.8173045
-0.024581723 0.32611752 1.8166047
-0.041024763 0.30686525 1.8190534
-0.037724752 0.30999905 1.8181844
-0.037755851 0.31353772 1.8196833
-0.034456257 0.3166694 1.8188136
-0.031160848 0.31980869 1.8180048
-0.031186514 0.3233549 1.8195022
-0.027892964 0.32651174 1.8188007
-0.024601953 0.32966617 1.8180997
-0.044364516 0.30726537 1.8214253
-0.041058604 0.31040305 1.8205539
-0.037787009 0.31708229 1.8211849
-0.034484677 0.32021487 1.8203137
-0.034513142 0.32376614 1.8218162
-0.031212222 0.32690695 1.8210021
-0.027915947 0.33006501 1.8202994
-0.047679421 0.30416182 1.8225201
-0.044391155 0.30416161 1.8225189
-0.04110289 0.3041614 1.8225176
-0.037814632 0.30416119 1.8225163
-0.034526378 0.30416095 1.822515
-0.031238129 0.30416074 1.8225137
-0.027949914 0.30416083 1.8225143
-0.024661668 0.30416057 1.8225126
-0.021373443 0.30416054 1.8225125
-0.018085221 0.30416054 1.8225124
-0.014796996 0.30416048 1.8225121
-0.011508774 0.30416048 1.822512
-0.0082205525 0.30416045 1.8225119
-0.0049323309 0.30416042 1.8225117
-0.0016441102 0.30416039 1.8225116
0.00164411 0.30416036 1.8225113
0.0049323295 0.30416033 1.8225112
0.0082205487 0.3041603 1.8225111
0.011508767 0.30416027 1.8225108
0.014796984 0.30416024 1.8225107
0.018085204 0.30416024 1.8225107
0.021373421 0.30416024 1.8225106
0.02466164 0.30416024 1.8225106
0.027949857 0.30416021 1.8225105
0.15947942 0.30416179 1.8225199
0.16276756 0.30416161 1.8225188
0.16605569 0.30416143 1.8225178
0.16934383 0.30416125 1.8225167
0.17263192 0.30416101 1.8225152
0.17591999 0.30416074 1.8225137
0.17920807 0.30416048 1.8225121
0.18249613 0.30416024 1.8225106
0.18578419 0.30415997 1.8225091
0.18907225 0.3041597 1.8225075
0.19236039 0.30415958 1.8225068
0.195649 0.30416021 1.8225105
0.22853114 0.30416015 1.8225101
0.23181923 0.30416 1.8225092
0.23510732 0.30415982 1.8225082
0.23839541 0.30415967 1.8225073
0.2416835 0.30415949 1.8225063
0.24497159 0.30415934 1.8225054
0.24825966 0.30415919 1.8225044
-0.047716711 0.3076905 1.8239455
0.22849114 0.30739456 1.8221912
-0.044401158 0.31080809 1.8229296
0.22857188 0.310792 1.8228351
-0.0410925 0.31394669 1.8220569
-0.041126452 0.31749621 1.8235623
-0.037818212 0.32063267 1.8226888
-0.034541652 0.32732329 1.8233212
-0.047757152 0.31124488 1.8254914
-0.044437878 0.31435686 1.8244373
-0.044474669 0.31791151 1.8259476
-0.041160472 0.32105169 1.8250707
-0.037849467 0.32418892 1.8241953
-0.037880786 0.32775113 1.8257046
-0.05111596 0.30504686 1.8278233
0.19951704 0.30504671 1.8278224
0.22573468 0.3048242 1.8264891
0.22588785 0.30832869 1.8277285
-0.047797661 0.31480527 1.8270398
-0.044511516 0.32147205 1.8274604
-0.041194554 0.32461309 1.8265821
-0.051125381 0.30180466 1.8281602
-0.047826935 0.30180445 1.8281589
-0.044528496 0.30180424 1.8281577
-0.041230075 0.30180416 1.8281571
-0.037931684 0.30180424 1.8281577
-0.03463326 0.30180416 1.8281569
-0.031334832 0.30180392 1.8281556
-0.028036414 0.30180374 1.8281546
-0.02473804 0.3018041 1.8281566
-0.021439625 0.30180398 1.8281559
-0.018141199 0.30180356 1.8281535
-0.014842798 0.30180356 1.8281534
-0.011544396 0.3018035 1.8281531
-0.0082459971 0.3018035 1.828153
-0.0049475976 0.30180344 1.8281528
-0.0016491991 0.30180344 1.8281527
0.0016491989 0.30180341 1.8281525
0.0049475962 0.30180338 1.8281523
0.0082459934 0.30180338 1.8281523
0.011544391 0.30180335 1.8281522
0.014842788 0.30180335 1.8281522
0.018141186 0.30180335 1.8281522
0.02143958 0.30180332 1.8281521
0.024737978 0.30180332 1.8281521
0.028036373 0.30180332 1.8281519
0.15997289 0.30180454 1.8281593
0.16327117 0.30180427 1.8281578
0.16656943 0.30180404 1.8281562
0.16986769 0.30180377 1.8281547
0.17316595 0.3018035 1.8281531
0.1764642 0.30180326 1.8281516
0.17976244 0.30180299 1.82815
0.18306068 0.30180275 1.8281485
0.186359 0.30180264 1.8281479
0.18965778 0.30180326 1.8281516
0.19295657 0.30180386 1.8281553
0.19625536 0.30180445 1.8281589
0.19955385 0.30180457 1.8281596
0.20298125 0.3019965 1.8293221
0.22278574 0.30199844 1.8293339
0.22593969 0.30180264 1.8281479
0.22923799 0.30180252 1.8281472
0.23253627 0.3018024 1.8281463
0.23583454 0.30180225 1.8281455
0.23913282 0.3018021 1.8281447
0.2424311 0.30180201 1.828144
0.24572937 0.30180183 1.828143
-0.051159319 0.30860621 1.8293737
0.19969571 0.30862063 1.8294592
0.22604123 0.31183788 1.8289695
-0.047838241 0.31837174 1.828591
-0.044548426 0.32503849 1.8289758
-0.054529753 0.30239227 1.8317195
0.21967421 0.30225852 1.8309093
0.20316316 0.3055706 1.8309616
0.22295578 0.30553201 1.8307302
-0.051202748 0.31217158 1.8309267
0.19987468 0.31220096 1.8310989
0.22619481 0.3153519 1.8302122
-0.047878891 0.32194427 1.8301448
-0.054592736 0.29943287 1.8338351
-0.051284049 0.29943267 1.8338338
-0.047975369 0.29943249 1.8338326
-0.044666689 0.29943225 1.8338313
-0.041358016 0.29943204 1.83383
-0.038049351 0.29943186 1.8338288
-0.03474072 0.29943192 1.8338292
-0.031432088 0.29943201 1.8338298
-0.028123457 0.2994321 1.8338304
-0.024814835 0.29943234 1.8338318
-0.021506215 0.29943267 1.8338338
-0.018197576 0.29943284 1.8338349
-0.014888883 0.29943198 1.8338295
-0.01158024 0.29943192 1.8338293
-0.0082715992 0.29943192 1.8338292
-0.0049629593 0.29943189 1.833829
-0.0016543196 0.29943186 1.8338288
0.0016543196 0.29943186 1.8338288
0.0049629589 0.29943186 1.8338288
0.0082715983 0.29943186 1.8338288
0.011580236 0.29943183 1.8338287
0.014888875 0.29943183 1.8338287
0.018197514 0.2994318 1.8338286
0.021506151 0.2994318 1.8338284
0.02481479 0.2994318 1.8338284
0.028123425 0.29943177 1.8338283
0.16046931 0.29943243 1.8338323
0.16377781 0.29943216 1.8338307
0.16708632 0.29943192 1.8338292
0.17039481 0.29943165 1.8338276
0.17370328 0.29943138 1.8338259
0.17701177 0.29943112 1.8338244
0.18032037 0.29943106 1.833824
0.18362936 0.29943168 1.8338277
0.18693839 0.29943228 1.8338314
0.19024719 0.29943255 1.8338331
0.19355589 0.29943261 1.8338335
0.19686458 0.29943267 1.8338338
0.20017326 0.29943272 1.8338342
0.20348194 0.29943278 1.8338345
0.20679028 0.29943234 1.8338318
0.21009888 0.29943225 1.8338313
0.21340787 0.29943275 1.8338344
0.2167166 0.29943287 1.833835
0.22002476 0.29943219 1.833831
0.22333287 0.29943147 1.8338265
0.22664095 0.29943076 1.8338221
0.2299494 0.29943052 1.8338206
0.23325792 0.29943037 1.8338197
0.23656644 0.29943025 1.833819
0.23987496 0.2994301 1.8338182
0.24318346 0.29942998 1.8338174
0.20660271 0.30246636 1.8321683
0.20995903 0.30253938 1.8326106
0.21331698 0.30261245 1.8330532
0.21655735 0.30251905 1.8324875
-0.054576106 0.30595696 1.8332765
0.21984206 0.30579534 1.8323082
0.20677267 0.30602357 1.8336756
0.21672295 0.30605912 1.8338888
0.2033454 0.30915114 1.8326039
0.22001016 0.30933759 1.8337092
0.22312197 0.30906525 1.8320948
0.22327384 0.31258339 1.8333418
-0.051246312 0.31574339 1.8324844
-0.05795813 0.29972634 1.8356323
0.21013179 0.30609748 1.8341186
0.21349253 0.30617145 1.8345618
-0.054622535 0.3095277 1.8348361
0.20694292 0.30958658 1.8351853
0.21030483 0.30966145 1.835629
0.21688882 0.30960464 1.8352922
0.20352797 0.31273812 1.8342494
0.2201785 0.31288525 1.8351123
0.22342589 0.31610629 1.8345904
-0.05128995 0.3193213 1.8340448
-0.051333662 0.32290527 1.8356079
-0.058007501 0.30329636 1.837196
0.21366842 0.3097364 1.8360733
-0.054669041 0.31310451 1.8363984
0.20711343 0.3131555 1.8366975
0.21047817 0.31323129 1.837142
0.2138446 0.3133072 1.8375871
0.21705492 0.31315556 1.8366978
-0.05471563 0.31668743 1.8379633
0.22034709 0.31643832 1.8365175
-0.058081675 0.2970463 1.8395452
-0.054762714 0.29704624 1.8395449
-0.051443748 0.29704615 1.8395444
-0.048124764 0.29704598 1.8395432
-0.044805784 0.29704574 1.8395419
-0.041486807 0.29704553 1.8395406
-0.038167834 0.29704532 1.8395392
-0.0082973624 0.29704559 1.8395408
-0.004978417 0.29704556 1.8395407
-0.0016594724 0.29704556 1.8395407
0.0016594724 0.29704556 1.8395407
0.004978417 0.29704553 1.8395406
0.0082973614 0.29704553 1.8395406
0.011616305 0.29704553 1.8395405
0.014935249 0.29704553 1.8395405
0.018254193 0.2970455 1.8395404
0.021573137 0.2970455 1.8395404
0.024892079 0.29704547 1.8395402
0.028211024 0.29704547 1.8395402
0.1609688 0.29704553 1.8395405
0.16428761 0.29704526 1.8395389
0.16760641 0.29704502 1.8395374
0.1709252 0.29704478 1.8395358
0.17424412 0.29704472 1.8395356
0.17756341 0.29704532 1.8395393
0.1808826 0.29704574 1.8395418
0.1842016 0.2970458 1.8395423
0.18752058 0.29704586 1.8395426
0.19083956 0.29704592 1.839543
0.19415855 0.29704598 1.8395433
0.19747753 0.29704604 1.8395437
0.20079653 0.2970461 1.8395441
0.20411552 0.29704618 1.8395445
0.20743452 0.29704624 1.8395449
0.21075334 0.29704604 1.8395437
0.21407226 0.29704601 1.8395435
0.21739149 0.29704639 1.8395458
0.22071004 0.29704586 1.8395425
0.22402857 0.29704529 1.8395391
0.22734709 0.29704472 1.8395356
0.23066549 0.29704407 1.8395314
0.23398411 0.29704365 1.8395289
0.23730293 0.29704353 1.8395281
-0.058056954 0.30687249 1.8387623
0.20728423 0.31673032 1.8382121
0.21065179 0.31680703 1.8386574
0.21402106 0.31688389 1.8391035
0.21722127 0.31671193 1.8381056
-0.054762304 0.3202765 1.8395312
0.15784536 0.29741389 1.8418217
-0.058106497 0.3104547 1.8403313
-0.058156118 0.31404305 1.841903
0.15791367 0.30086708 1.8426187
0.15798202 0.30432326 1.8434163
-0.058205828 0.31763753 1.8434774
-0.058263026 0.29464445 1.8452889
-0.054933701 0.29464439 1.8452885
-0.051604372 0.2946443 1.845288
-0.048275046 0.29464427 1.8452877
-0.044945724 0.29464421 1.8452873
-0.041616421 0.29464427 1.8452877
-0.0049939719 0.29464436 1.8452883
-0.0016646574 0.29464436 1.8452883
0.0016646573 0.29464433 1.8452882
0.0049939719 0.29464433 1.8452882
0.0083232848 0.2946443 1.8452879
0.011652597 0.29464427 1.8452877
0.01498191 0.29464421 1.8452874
0.018311219 0.29464418 1.8452872
0.02164053 0.29464415 1.845287
0.02496984 0.29464412 1.8452868
0.028299149 0.29464409 1.8452866
0.15814225 0.294644 1.845286
0.16147141 0.29464373 1.8452843
0.16480058 0.29464346 1.8452828
0.16812989 0.29464346 1.8452828
0.17145951 0.29464403 1.8452863
0.17478886 0.29464409 1.8452866
0.17811821 0.29464415 1.8452871
0.18144757 0.29464421 1.8452874
0.18477692 0.29464427 1.8452878
0.18810627 0.29464433 1.8452882
0.19143562 0.29464439 1.8452885
0.19476499 0.29464447 1.845289
0.19809434 0.29464453 1.8452893
0.20142369 0.29464456 1.8452897
0.20475306 0.29464462 1.8452901
0.20808241 0.29464468 1.8452904
0.21141179 0.29464477 1.8452909
0.21474114 0.29464483 1.8452913
0.21807046 0.29464483 1.8452913
0.22139952 0.29464447 1.845289
0.22472841 0.29464391 1.8452855
0.2280573 0.29464337 1.8452821
0.23138615 0.29464281 1.8452786
0.15805045 0.30778244 1.8442148
0.15811893 0.31124464 1.8450139
-0.05844551 0.29222757 1.8510685
-0.055105757 0.29222751 1.8510681
-0.051766042 0.29222766 1.8510691
-0.048426334 0.29222786 1.8510705
-0.045086619 0.29222807 1.8510718
-0.041746899 0.29222828 1.8510731
-0.0050096181 0.29222772 1.8510696
-0.0016698729 0.29222777 1.8510698
0.0016698729 0.29222777 1.8510698
0.0050096181 0.29222772 1.8510696
0.0083493628 0.29222769 1.8510693
0.011689107 0.29222766 1.8510692
0.015028849 0.29222763 1.851069
0.018368592 0.2922276 1.8510687
0.021708332 0.29222757 1.8510685
0.025048073 0.29222751 1.8510683
0.028387813 0.29222748 1.851068
0.031727552 0.29222745 1.8510678
0.1586376 0.29222715 1.8510659
0.16197734 0.29222715 1.851066
0.16531718 0.29222733 1.8510671
0.16865695 0.29222739 1.8510674
0.17199673 0.29222745 1.8510679
0.17533651 0.29222751 1.8510683
0.17867629 0.29222757 1.8510686
0.18201606 0.29222763 1.851069
0.18535584 0.29222769 1.8510693
0.18869564 0.29222777 1.8510698
0.19203542 0.2922278 1.8510702
0.1953752 0.29222786 1.8510705
0.19871499 0.29222792 1.8510709
0.20205478 0.29222798 1.8510712
0.20539458 0.29222807 1.8510717
0.20873438 0.29222813 1.8510721
0.21207416 0.29222816 1.8510724
0.21541396 0.29222822 1.8510728
0.21875376 0.29222828 1.8510731
0.22209331 0.29222804 1.8510716
0.031715397 0.29545394 1.8503586
0.031742252 0.29904541 1.8519255
0.031769149 0.30264294 1.8534948
0.031796087 0.30624652 1.8550663
-0.058629196 0.28979576 1.8568861
-0.055278961 0.28979576 1.8568863
-0.051928721 0.28979576 1.8568863
-0.048578486 0.28979582 1.8568865
-0.045228262 0.28979591 1.8568871
-0.041878037 0.28979599 1.8568878
-0.038529746 0.28981072 1.856982
-0.0083756037 0.28979588 1.856887
-0.0050253603 0.28979579 1.8568864
-0.00167512 0.28979576 1.8568861
0.00167512 0.28979576 1.8568863
0.0050253607 0.28979582 1.8568865
0.0083756018 0.28979582 1.8568866
0.011725844 0.28979585 1.8568869
0.015076084 0.28979585 1.8568867
0.018426323 0.28979582 1.8568865
0.021776561 0.28979576 1.8568863
0.025126798 0.28979573 1.856886
0.028477034 0.2897957 1.8568858
0.031827267 0.28979567 1.8568856
0.035177503 0.28979561 1.8568853
0.15578596 0.2897954 1.8568839
0.15913624 0.28979546 1.8568842
0.16248651 0.28979552 1.8568847
0.16583678 0.28979558 1.8568851
0.16918705 0.28979564 1.8568854
0.17253733 0.2897957 1.8568859
0.1758876 0.28979576 1.8568863
0.17923787 0.28979582 1.8568866
0.18258816 0.28979588 1.856887
0.18593845 0.28979596 1.8568875
0.18928872 0.28979599 1.8568878
0.19263901 0.28979605 1.8568882
0.1959893 0.28979614 1.8568887
0.19933958 0.2897962 1.856889
0.20268986 0.28979626 1.8568894
0.20604016 0.28979632 1.8568898
0.20939045 0.28979638 1.8568902
-0.0083731301 0.29305956 1.8563386
0.15580656 0.29318437 1.8571293
-0.0083799371 0.29664975 1.8578477
0.031823073 0.30985624 1.8566407
-0.038559224 0.29338539 1.8584026
0.035201576 0.29334646 1.858156
-0.03858874 0.29696551 1.8598253
0.035231505 0.29695126 1.859736
0.15591782 0.29674685 1.8584557
0.15602927 0.3003144 1.8597839
-0.035268266 0.29054332 1.8616763
-0.011746295 0.29030129 1.8601254
0.15272908 0.29035309 1.8604573
-0.011755863 0.29389659 1.8616407
0.15283823 0.29391968 1.861787
0.035261489 0.30056223 1.8613187
0.15612713 0.30386031 1.8609504
0.15619539 0.30735222 1.8617641
-0.055453297 0.2873489 1.8627424
-0.052092493 0.2873489 1.8627424
-0.048731688 0.28734893 1.8627425
-0.045370881 0.28734893 1.8627425
-0.04201008 0.28734893 1.8627427
-0.03864928 0.28734899 1.862743
-0.035288479 0.28734905 1.8627434
-0.031932652 0.28739387 1.8630339
-0.018496264 0.28753284 1.8639348
-0.015123554 0.28734753 1.8627335
-0.01176282 0.2873489 1.8627424
-0.0084020216 0.28734913 1.862744
-0.0050412114 0.28734905 1.8627434
-0.0016804032 0.28734896 1.8627428
0.0016804028 0.2873489 1.8627423
0.0050412067 0.28734881 1.8627417
0.0084020095 0.28734872 1.8627412
0.011762809 0.28734863 1.8627406
0.015123609 0.28734854 1.8627402
0.018484412 0.28734857 1.8627403
0.021845214 0.2873486 1.8627404
0.025206018 0.2873486 1.8627405
0.028566817 0.28734857 1.8627403
0.031927615 0.28734854 1.86274
0.035288412 0.28734851 1.8627398
0.14964065 0.2875118 1.8637984
0.15291646 0.28734851 1.8627399
0.15627716 0.28734833 1.8627387
0.159638 0.28734842 1.8627392
0.16299884 0.28734845 1.8627396
0.16635966 0.28734851 1.8627399
0.16972052 0.2873486 1.8627404
0.17308135 0.28734866 1.8627408
0.17644219 0.28734869 1.8627411
0.17980303 0.28734875 1.8627415
0.18316387 0.28734884 1.8627419
0.18652472 0.2873489 1.8627423
0.18988556 0.28734893 1.8627427
0.19324641 0.28734902 1.8627431
0.19660726 0.28734908 1.8627435
0.1999681 0.28734913 1.8627439
-0.015131718 0.29086524 1.863739
-0.03529628 0.29413566 1.8631551
-0.011765447 0.29749775 1.8631585
0.15294766 0.29749161 1.8631201
0.035291526 0.30417934 1.8629042
0.15626371 0.31084716 1.8625784
-0.028595248 0.28763455 1.8645942
-0.025237078 0.28770268 1.8650358
-0.021877315 0.28777084 1.8654776
0.038684249 0.28760898 1.8644284
-0.031958036 0.29098633 1.8645148
-0.018511249 0.29113147 1.8654448
0.14974777 0.29108277 1.8651328
-0.031983461 0.29458448 1.8659981
-0.015143976 0.2944662 1.8652488
-0.035324339 0.29773372 1.8646363
-0.011775048 0.30110478 1.8646786
0.15305726 0.30106866 1.864455
0.15316699 0.30465084 1.8657918
0.035321608 0.30780259 1.8644921
-0.028618269 0.29123297 1.8660953
-0.025257399 0.291302 1.8665376
-0.021894934 0.29137105 1.86698
0.038717255 0.29122108 1.8660191
-0.028641324 0.29483718 1.8675987
-0.018526258 0.29473591 1.8669573
0.038750317 0.29483938 1.8676126
0.14985506 0.29465884 1.866469
-0.032008924 0.29818839 1.8674839
-0.015156253 0.29807296 1.866761
0.14996256 0.29824013 1.8678079
-0.035352442 0.30133748 1.8661197
0.15327689 0.30823815 1.8671305
-0.052257303 0.28488657 1.8686358
-0.048885867 0.2848866 1.8686359
-0.045514438 0.28488666 1.8686364
-0.042143006 0.28488672 1.8686367
-0.038771577 0.28488681 1.8686372
-0.035400141 0.28488684 1.8686376
-0.032028705 0.2848869 1.8686379
-0.02865725 0.28488678 1.8686371
-0.025285795 0.28488663 1.8686361
-0.021914359 0.28488666 1.8686364
-0.018542886 0.28488615 1.868633
-0.01517144 0.28488594 1.8686316
-0.011800054 0.28488699 1.8686385
-0.0084286071 0.2848869 1.8686379
-0.0050571626 0.28488684 1.8686374
-0.0016857204 0.28488675 1.8686368
0.0016857199 0.28488666 1.8686364
0.0050571584 0.28488657 1.8686358
0.0084285941 0.28488648 1.8686352
0.011800029 0.28488642 1.8686347
0.015171461 0.28488633 1.8686341
0.018542891 0.28488624 1.8686336
0.02191432 0.28488615 1.868633
0.025285745 0.28488606 1.8686324
0.028657172 0.284886 1.868632
0.032028593 0.28488591 1.8686314
0.035400022 0.28488588 1.8686312
0.038771451 0.28488588 1.8686311
0.14665775 0.2848869 1.8686379
0.15002881 0.28488615 1.868633
0.15340002 0.28488573 1.8686303
0.15677148 0.28488579 1.8686306
0.16014293 0.28488585 1.868631
0.16351441 0.28488591 1.8686315
0.16688587 0.28488597 1.8686318
0.17025733 0.28488603 1.8686322
0.17362881 0.28488609 1.8686327
0.17700028 0.28488615 1.868633
0.18037175 0.28488621 1.8686334
0.18374322 0.2848863 1.8686339
0.1871147 0.28488633 1.8686342
0.1466462 0.28823563 1.8684907
0.14675145 0.29181609 1.8698317
-0.025277751 0.29490709 1.8680416
-0.021912582 0.29497707 1.8684849
-0.028664414 0.29844713 1.8691043
-0.025298137 0.29851803 1.8695482
-0.021930259 0.2985889 1.8699921
-0.018541291 0.29834625 1.8684723
0.038783435 0.29846382 1.8692088
-0.032034427 0.30179805 1.8689718
-0.018556355 0.30196249 1.8699902
-0.01516855 0.30168563 1.8682756
0.15007028 0.30182675 1.8691496
0.14353344 0.28537825 1.8718607
0.14685686 0.29540172 1.8711747
-0.028687542 0.30206296 1.8706124
-0.025318557 0.30213478 1.8710573
-0.021947965 0.30220661 1.8715019
0.038816612 0.30209449 1.8708078
0.15017815 0.30541849 1.8704932
0.042220734 0.28541216 1.8720832
0.042255417 0.28902707 1.8736211
0.14363664 0.28896311 1.8732066
0.1469624 0.29899248 1.8725196
0.14706822 0.30258864 1.8738679
0.038849846 0.30573139 1.8724095
-0.045658916 0.28240883 1.874568
-0.042276785 0.28240892 1.8745685
-0.03889465 0.28240898 1.8745688
-0.035512514 0.28240904 1.8745693
-0.032130361 0.28240895 1.8745687
-0.028748214 0.28240892 1.8745686
-0.025366075 0.28240898 1.8745688
-0.021983935 0.28240901 1.8745691
-0.018601762 0.28240857 1.8745661
-0.015219659 0.28240922 1.8745705
-0.011837509 0.28240916 1.87457
-0.0084553612 0.28240907 1.8745694
-0.0050732149 0.28240898 1.8745688
-0.0016910712 0.28240889 1.8745683
0.0016910707 0.2824088 1.8745677
0.0050732107 0.28240874 1.8745673
0.0084553491 0.28240865 1.8745667
0.011837484 0.28240857 1.8745661
0.015219619 0.28240848 1.8745656
0.018601751 0.28240839 1.874565
0.021983881 0.2824083 1.8745644
0.025366008 0.28240824 1.8745639
0.028748134 0.28240815 1.8745633
0.03213026 0.28240806 1.8745629
0.035512384 0.282408 1.8745624
0.038894504 0.28240794 1.8745619
0.042276625 0.28240785 1.8745614
0.045658737 0.28240776 1.8745607
0.14040941 0.28251052 1.8752428
0.14374107 0.28240892 1.8745686
0.14712283 0.28240821 1.8745637
0.1505046 0.28240752 1.8745592
0.15388677 0.28240758 1.8745595
0.15726893 0.28240764 1.87456
0.16065109 0.2824077 1.8745604
0.16403325 0.28240776 1.8745607
0.16741541 0.28240782 1.8745612
0.17079757 0.28240788 1.8745615
0.17417975 0.28240794 1.8745619
0.17756191 0.282408 1.8745624
0.045670286 0.28586215 1.8750348
0.042290159 0.2926479 1.8751615
0.14373998 0.29255316 1.8745544
0.14384349 0.29614836 1.8759042
0.14717419 0.30618998 1.8752182
0.049090311 0.28269246 1.8764507
0.04913073 0.28631356 1.8779957
0.14051056 0.28609982 1.8765937
0.045707859 0.28948313 1.8765775
0.14061184 0.28969428 1.8779464
0.04232496 0.29627472 1.8767046
0.14394714 0.29974875 1.8772559
0.05255878 0.28313923 1.8794161
0.13737315 0.28322613 1.879993
0.049171217 0.28994063 1.8795433
0.045745499 0.29311004 1.8781228
0.14071327 0.29329395 1.8793011
0.045783203 0.29674298 1.8796707
0.042359814 0.29990751 1.8782501
0.042394727 0.30354625 1.8797982
0.14405097 0.30335438 1.87861
-0.039018508 0.27991539 1.8805383
-0.035625596 0.27991539 1.8805385
-0.032232687 0.27991542 1.8805387
-0.028839776 0.27991548 1.8805389
-0.025446864 0.27991551 1.8805392
-0.022053953 0.27991557 1.8805395
-0.018661039 0.2799156 1.8805398
-0.015268124 0.2799156 1.8805398
-0.011875203 0.27991551 1.8805392
-0.0084822858 0.27991542 1.8805387
-0.0050893701 0.27991533 1.8805381
-0.0016964561 0.27991524 1.8805375
0.0016964556 0.27991518 1.880537
0.0050893659 0.27991512 1.8805366
0.0084822737 0.27991503 1.880536
0.01187518 0.27991495 1.8805355
0.015268085 0.27991489 1.880535
0.018660987 0.27991483 1.8805345
0.022053888 0.27991474 1.8805341
0.025446787 0.27991468 1.8805336
0.028839687 0.27991459 1.8805331
0.032232583 0.27991453 1.8805326
0.035625476 0.27991447 1.8805321
0.03901837 0.27991438 1.8805317
0.04241126 0.27991432 1.8805312
0.04580415 0.27991426 1.8805307
0.049197033 0.27991417 1.8805301
0.052589901 0.27991399 1.8805289
0.055992015 0.27996007 1.8808386
0.13741326 0.27991593 1.8805419
0.14080581 0.27991515 1.8805369
0.14419834 0.27991444 1.880532
0.14759086 0.27991372 1.8805271
0.15098369 0.27991357 1.8805262
0.15437661 0.27991363 1.8805265
0.15776953 0.27991369 1.880527
0.16116247 0.27991375 1.8805274
0.1645554 0.27991381 1.8805279
0.13412236 0.28012896 1.8819733
0.052602123 0.28676641 1.8809661
0.13747236 0.28682506 1.8813506
0.049211774 0.29357368 1.8810935
0.14081486 0.29689878 1.8806577
0.045820966 0.3003819 1.8812212
0.059479538 0.28040355 1.8838179
0.13084151 0.28037468 1.883624
0.056038227 0.2835874 1.8823909
0.13422652 0.28374466 1.8834349
0.056084514 0.28722069 1.8839457
0.052645538 0.29039958 1.8825185
0.13757171 0.29042915 1.8827102
0.049252395 0.29721275 1.8826463
0.14091659 0.30050886 1.8820163
0.12755491 0.28062081 1.8852775
0.13094325 0.28399381 1.8850886
0.059528708 0.28403696 1.8853751
0.13433084 0.28736597 1.8848987
0.056130879 0.29086 1.8855032
0.052689027 0.29403877 1.8840736
0.1376712 0.2940385 1.8840718
0.052732591 0.29768398 1.8856313
0.13777083 0.29765305 1.8854353
0.049293086 0.30085781 1.8842016
-0.015316899 0.27740607 1.8865473
-0.01191314 0.27740598 1.8865469
-0.0085093835 0.27740592 1.8865464
-0.0051056291 0.27740586 1.8865459
-0.0017018759 0.27740577 1.8865454
0.0017018755 0.27740571 1.8865449
0.0051056254 0.27740562 1.8865445
0.0085093733 0.27740556 1.886544
0.01191312 0.2774055 1.8865435
0.015316864 0.27740541 1.886543
0.018720606 0.27740535 1.8865426
0.022124346 0.27740526 1.886542
0.025528086 0.2774052 1.8865415
0.028931823 0.27740511 1.886541
0.032335557 0.27740505 1.8865405
0.035739291 0.27740499 1.8865401
0.039143026 0.2774049 1.8865396
0.042546757 0.27740484 1.8865391
0.045950484 0.27740479 1.8865386
0.04935421 0.2774047 1.8865381
0.052757937 0.27740464 1.8865377
0.056161638 0.27740446 1.8865365
0.059565336 0.27740428 1.8865353
0.062969029 0.2774041 1.8865341
0.1208702 0.27749074 1.8871232
0.12423699 0.27740589 1.8865463
0.12764066 0.27740571 1.8865449
0.13104433 0.2774055 1.8865436
0.13444796 0.27740529 1.8865422
0.13785161 0.27740511 1.8865409
0.14125519 0.27740476 1.8865385
0.14465855 0.27740404 1.8865336
0.14806207 0.27740362 1.8865309
0.15146583 0.27740371 1.8865314
0.15486959 0.27740377 1.8865317
0.062978134 0.28084841 1.8868067
0.12426253 0.28086737 1.886934
0.12765418 0.28424332 1.8867449
0.059577953 0.28767639 1.8869349
0.1310451 0.28761849 1.886555
0.13443531 0.29099292 1.8863647
0.056177318 0.29450533 1.8870631
0.13453996 0.29462549 1.8878331
0.052776225 0.30133522 1.8871917
0.13787061 0.30127281 1.8868008
0.066432796 0.27765501 1.8882405
0.11756872 0.27773482 1.8887831
0.066487841 0.2812947 1.889805
0.12096436 0.28111437 1.8885934
0.063030273 0.28448799 1.8883688
0.12435934 0.28449327 1.888404
0.1277536 0.28787145 1.8882142
0.063082501 0.28813359 1.8899336
0.12445629 0.28812483 1.8898761
0.059627287 0.2913219 1.8884974
0.12785314 0.29150516 1.8896854
0.13114713 0.2912488 1.8880236
0.13124929 0.2948848 1.8894945
0.05622384 0.29815674 1.8886259
0.13464478 0.29826373 1.8893037
0.11426143 0.27797928 1.8904457
0.069946401 0.2780796 1.8911278
0.073375851 0.27814567 1.8915772
0.1143506 0.28160968 1.8919212
0.1176604 0.28136182 1.8902558
0.066542976 0.28494042 1.8913721
0.11775221 0.28499448 1.8917309
0.12105869 0.28474367 1.890066
0.12115314 0.2883786 1.8915408
0.063134812 0.29178524 1.8915009
0.12455335 0.29176196 1.8913502
0.059676696 0.29497337 1.8900622
0.12795284 0.29514456 1.8911589
0.05972619 0.29863095 1.8916298
0.13135163 0.29852644 1.8909677
0.015365954 0.27487984 1.8925894
0.018780606 0.27487978 1.892589
0.022195257 0.27487972 1.8925885
0.025609905 0.27487966 1.892588
0.029024551 0.27487957 1.8925874
0.032439195 0.27487949 1.8925869
0.035853837 0.27487943 1.8925865
0.039268479 0.27487937 1.892586
0.042683121 0.27487928 1.8925855
0.046097755 0.27487922 1.892585
0.049512394 0.27487916 1.8925846
0.052927028 0.27487907 1.8925841
0.056341659 0.27487901 1.8925836
0.059756272 0.27487886 1.8925825
0.06317088 0.27487868 1.8925813
0.066585474 0.2748785 1.8925802
0.070000097 0.27487844 1.8925797
0.073414765 0.27487853 1.8925804
0.076829433 0.27487865 1.8925811
0.080244109 0.27487874 1.8925818
0.083658785 0.27487886 1.8925825
0.08707346 0.27487895 1.8925833
0.090488143 0.27487907 1.8925841
0.093910836 0.27490261 1.8927462
0.097348906 0.27496797 1.8931961
0.10078862 0.27503335 1.8936462
0.10422302 0.27508044 1.8939705
0.10756161 0.27487966 1.8925881
0.11097619 0.27487949 1.8925868
0.11439075 0.27487928 1.8925854
0.11780532 0.27487907 1.8925841
0.12121987 0.27487886 1.8925827
0.12463443 0.27487868 1.8925813
0.12804897 0.27487847 1.8925799
0.13146353 0.27487829 1.8925786
0.13487808 0.27487811 1.8925774
0.13829261 0.27487791 1.8925761
0.14170717 0.27487776 1.8925749
0.076806925 0.27821177 1.8920267
0.080239631 0.27827787 1.8924762
0.083673961 0.27834401 1.892926
0.087109931 0.27841017 1.893376
0.090547532 0.27847636 1.8938261
0.10762934 0.27846956 1.8937799
0.1109483 0.2782242 1.8921113
0.070002891 0.28171894 1.8926551
0.073435128 0.28178596 1.8931054
0.076869003 0.28185302 1.8935559
0.11103497 0.281858 1.8935894
0.11443991 0.28524575 1.8933988
0.066598199 0.28859222 1.8929418
0.11784418 0.28863284 1.8932084
0.12124775 0.29201922 1.8930178
0.063187219 0.29544294 1.8930709
0.12465056 0.29540473 1.8928262
0.12805268 0.29878962 1.8926347
0.093986765 0.27854261 1.8942766
0.097427636 0.27860886 1.8947272
0.10087015 0.27867517 1.8951781
0.10430451 0.27871534 1.8954514
0.080304496 0.28192005 1.8940061
