# .PCD v0.7 - Point Cloud Data file format
VERSION 0.7
FIELDS x y z
SIZE 4 4 4
TYPE F F F
COUNT 1 1 1
WIDTH 1494
HEIGHT 1
VIEWPOINT 0 0 0 1 0 0 0
POINTS 1494
DATA ascii
0.58104014 0.072055116 1.6994419
0.51794469 0.076618895 1.6986599
0.5230124 0.077048361 1.6968722
0.52766818 0.078003123 1.6954352
0.57278126 0.07701645 1.6961699
0.57729387 0.076563992 1.6974423
0.58079267 0.076621532 1.6987181
0.51358277 0.082786314 1.6994367
0.51770568 0.082710281 1.697876
0.52323794 0.082616426 1.6959492
0.57355708 0.082591973 1.6954491
0.57700157 0.082647219 1.6965826
0.58224249 0.082739405 1.6984752
0.51343286 0.087360218 1.6989408
0.51753992 0.087277517 1.6973324
0.52307767 0.087179676 1.6954297
0.57672155 0.087196626 1.6957593
0.5819658 0.08729478 1.6976681
0.58732784 0.087409101 1.6998914
0.51193529 0.091964416 1.6990588
0.51740783 0.091847546 1.6968994
0.52156198 0.091770396 1.6954732
0.57818133 0.091775015 1.6955533
0.58230948 0.091352679 1.6971823
0.58706188 0.091967694 1.6991218
0.51195133 0.098098613 1.6991119
0.5174886 0.097986221 1.6971638
0.52263856 0.098409034 1.6956588
0.57875377 0.098413475 1.6957363
0.58336139 0.09799251 1.6972743
0.58696735 0.098083332 1.6988482
0.51343036 0.10268607 1.6989324
0.51764137 0.10260944 1.6976647
0.52324331 0.10250682 1.6959667
0.5766108 0.10247461 1.6954337
0.58177269 0.10257562 1.6971049
0.58707821 0.10270037 1.6991689
0.5136531 0.1057972 1.6996695
0.51788878 0.1072555 1.6984766
0.52295929 0.10663325 1.6967002
0.52641022 0.1086487 1.6963114
0.53064901 0.1085766 1.6951857
0.57372797 0.10862583 1.6959542
0.57698822 0.1071337 1.6965433
0.58169299 0.10673752 1.6983628
0.5197022 0.11191227 1.6993946
0.52264202 0.11341837 1.6989839
0.52687156 0.11333917 1.6977978
0.53255403 0.11324476 1.6963835
0.53788334 0.11369506 1.6954941
0.54286313 0.1146894 1.6951237
0.56277716 0.1146964 1.6952271
0.56772882 0.11476997 1.6963146
0.57268703 0.11331291 1.6974019
0.57769406 0.11186118 1.6986188
0.52733362 0.11803696 1.6992867
0.53302467 0.11793943 1.6978827
0.53733397 0.11787669 1.6969794
0.54171264 0.11783019 1.6963098
0.54767907 0.11779691 1.6958311
0.55223769 0.11779031 1.6957359
0.55688322 0.11780222 1.6959074
0.5632199 0.11784759 1.6965606
0.56819791 0.11792786 1.6977161
0.57164288 0.1180067 1.6988511
0.52905494 0.12114591 1.6998909
0.53334177 0.12107478 1.6988928
0.53689533 0.12311363 1.698822
0.54222327 0.12253684 1.6979086
0.54820275 0.12250394 1.6974525
0.55282515 0.12251027 1.6975398
0.55749863 0.12252772 1.6977814
0.56225169 0.12256227 1.6982596
0.5665707 0.12210169 1.6989598
0.53827274 0.12728387 1.6999441
0.54274249 0.1272532 1.6995345
0.54722667 0.12722637 1.6991762
0.55184942 0.12723193 1.6992505
0.5581181 0.12726316 1.6996677
0.50678283 0.053749777 1.7023467
0.51144552 0.052217491 1.702529
0.51674819 0.050752059 1.7048223
0.52283967 0.050746202 1.7046256
0.52741379 0.050742432 1.7044989
0.53199029 0.050738961 1.7043822
0.5380913 0.050734334 1.7042267
0.54266649 0.050730862 1.7041101
0.54725158 0.050728377 1.7040267
0.55337548 0.050726086 1.7039497
0.55796796 0.050724361 1.7038919
0.56255901 0.050722532 1.7038305
0.56714451 0.050720241 1.7037535
0.57172823 0.050717823 1.7036723
0.57789493 0.050719492 1.7037283
0.58262795 0.050730139 1.7040859
0.58739668 0.051721979 1.7030574
0.59117913 0.053743556 1.7021496
0.50700593 0.058383286 1.7030965
0.51088095 0.059832904 1.7006496
0.58788836 0.059863307 1.7015138
0.59148234 0.056843754 1.7030226
0.50891477 0.063037775 1.7043407
0.51264948 0.062930137 1.7014306
0.58439624 0.06288778 1.7002853
0.58874559 0.06302499 1.7039949
0.50895697 0.067655787 1.7044821
0.51288861 0.067566179 1.7022233
0.51684737 0.065947883 1.7000895
0.58126253 0.069015339 1.7000922
0.58634758 0.068108805 1.7029802
0.50878829 0.072244868 1.7039173
0.51275724 0.072154544 1.701787
0.58486313 0.072148472 1.7016437
0.58866876 0.072238721 1.7037724
0.50722325 0.076851845 1.7038256
0.51251167 0.076723143 1.7009718
0.58446753 0.076701432 1.7004926
0.58821416 0.076790005 1.7024568
0.59196651 0.076878294 1.7044165
0.50291008 0.084587328 1.7048335
0.50690961 0.082948752 1.7027719
0.51086402 0.082842633 1.7005932
0.58767378 0.082857072 1.7008926
0.59139645 0.082948789 1.7027755
0.59509897 0.084574789 1.7045809
0.50281417 0.087646514 1.7045084
0.50673294 0.087526716 1.7021787
0.51069438 0.087416157 1.7000285
0.59292972 0.087556839 1.7027645
0.50267732 0.092234232 1.7040443
0.50658607 0.092106558 1.7016853
0.59260237 0.092114016 1.7018244
0.5027045 0.098388888 1.7041366
0.50659144 0.098248214 1.7017032
0.59260297 0.098255277 1.7018253
0.50294447 0.10304978 1.7049501
0.50674188 0.10288412 1.7022091
0.51070827 0.10275511 1.7000748
0.59282613 0.10289964 1.702466
0.50710499 0.10756828 1.7034286
0.51198101 0.10792027 1.7009073
0.58439833 0.10890362 1.7002914
0.58773643 0.10741983 1.7010739
0.59159392 0.10756324 1.703344
0.50883442 0.11222028 1.7040716
0.51282501 0.11208463 1.7020118
0.51692533 0.11197492 1.7003459
0.58305919 0.1120086 1.7008574
0.58853716 0.11217549 1.7033916
0.513309 0.11680147 1.7036183
0.51740426 0.11668512 1.7019213
0.52116346 0.1171214 1.7008286
0.57731676 0.11709993 1.7005157
0.58195972 0.11669965 1.7021313
0.5855732 0.11680795 1.7037098
0.51707888 0.12247979 1.704223
0.52221763 0.12287532 1.7025989
0.52738178 0.12327769 1.7010895
0.53222895 0.12423788 1.7002327
0.56913841 0.12425932 1.7005262
0.57234359 0.12275527 1.7009335
0.57760352 0.12289488 1.7028677
0.58265567 0.12145065 1.7041669
0.52270246 0.127601 1.7041795
0.52827865 0.12746269 1.7023323
0.53254604 0.12738132 1.7012458
0.53540838 0.12733208 1.700588
0.56290489 0.12730546 1.7002326
0.56791198 0.12739637 1.7014467
0.57304585 0.12751421 1.7030206
0.5765605 0.12761205 1.7043272
0.52441913 0.1307203 1.704761
0.52720559 0.13064861 1.7038261
0.53165489 0.13214605 1.7033086
0.53740835 0.13204953 1.7020642
0.54276639 0.13147186 1.7012123
0.54688805 0.13250203 1.7013029
0.55245793 0.13197662 1.7011243
0.55713737 0.13199453 1.7013552
0.56197119 0.13204843 1.7020494
0.566921 0.13212857 1.7030818
0.57139748 0.13170362 1.7042135
0.53365582 0.13687426 1.7047911
0.53860009 0.13785331 1.7042146
0.54261875 0.13834529 1.7039604
0.54712504 0.13831873 1.703633
0.55270129 0.13779168 1.7034518
0.55702376 0.13887213 1.7041386
0.56265426 0.13682023 1.704118
0.49811992 0.052433819 1.7095065
0.5018357 0.052338533 1.7064126
0.5076319 0.050763205 1.7051966
0.59225678 0.050764866 1.7052524
0.59560978 0.052326858 1.706044
0.50194347 0.056969177 1.7067802
0.59618932 0.057000015 1.7077041
0.50289291 0.061127972 1.7082602
0.50636929 0.063103773 1.7061249
0.59273964 0.061584305 1.7066427
0.50297052 0.06833028 1.7085238
0.50635707 0.067719325 1.7060839
0.58910751 0.066140004 1.7050422
0.59297311 0.067768171 1.707315
0.59696937 0.06941504 1.7099383
0.50231874 0.072420299 1.7080548
0.50616622 0.072309464 1.7054408
0.59251636 0.072333165 1.7059999
0.59652805 0.072446562 1.7086743
0.4981153 0.078649782 1.7094907
0.50203896 0.076999679 1.7071036
0.59721142 0.077539898 1.7076874
0.49788171 0.083236963 1.708689
0.50130111 0.08260978 1.7063389
0.59791523 0.082630359 1.7067648
0.60305816 0.084829152 1.7097075
0.49642718 0.087877005 1.7089909
0.50025713 0.087737411 1.7062762
0.59875351 0.087735094 1.7062311
0.60284454 0.087882705 1.7091018
0.49632981 0.092483915 1.7086562
0.5000999 0.092325963 1.7057396
0.59865677 0.092337847 1.7059555
0.60286671 0.092511535 1.7091647
0.49636105 0.097114295 1.7087636
0.50009429 0.096941352 1.7057207
0.59871358 0.096963897 1.7061173
0.6028921 0.097141184 1.7092367
0.49780765 0.10171944 1.7084348
0.50033569 0.10160688 1.7065439
0.59908593 0.10164508 1.7071782
0.49807233 0.10639935 1.7093432
0.50197858 0.10778742 1.7068985
0.5971331 0.10730902 1.7074623
0.50241697 0.11250459 1.708389
0.50625783 0.11233077 1.7057495
0.59244245 0.11233325 1.7057871
0.59663075 0.11254276 1.7089685
0.50415474 0.11717407 1.7090528
0.5080272 0.11700086 1.7065264
0.5893743 0.11695229 1.7058145
0.59330946 0.11712159 1.7082834
0.50850904 0.12173416 1.7081449
0.5117839 0.123712 1.707076
0.51547813 0.124638 1.7057085
0.58316612 0.12463445 1.70566
0.58663058 0.12317773 1.7067862
0.59048325 0.12333927 1.7090241
0.51178622 0.12794673 1.708797
0.51717103 0.12775369 1.7062188
0.58190131 0.12777182 1.7064612
0.58743799 0.12797205 1.7091352
0.51343399 0.13105673 1.7091483
0.51767516 0.13250083 1.7078819
0.52278465 0.13287686 1.7061194
0.52757221 0.13381569 1.7050109
0.57402897 0.13388878 1.7059423
0.57731837 0.13239902 1.7065675
0.58198881 0.13201356 1.7082253
0.51954645 0.13720959 1.7089677
0.52231652 0.13712735 1.7079433
0.52653432 0.1370222 1.7066336
0.5307765 0.13692495 1.7054224
0.53691077 0.13999678 1.7053599
0.56146032 0.13998051 1.7051617
0.56763911 0.13691024 1.7052392
0.5727948 0.13703948 1.706849
0.57807803 0.1371972 1.7088132
0.52268058 0.14030659 1.7091337
0.52708465 0.1417895 1.7084173
0.53277981 0.14166461 1.7069126
0.53728902 0.14317444 1.7065613
0.54171598 0.14312387 1.7059584
0.54773128 0.14308712 1.7055205
0.55235672 0.14308962 1.7055504
0.55707586 0.14311612 1.7058663
0.56333649 0.1416041 1.7061861
0.56731838 0.14221506 1.7073603
0.5717895 0.14179213 1.7084475
0.57503623 0.14029035 1.7089359
0.52904361 0.14652812 1.7097663
0.53334451 0.14643861 1.7087219
0.53695899 0.14849944 1.7087789
0.54230714 0.14790255 1.7078203
0.54775804 0.14733569 1.7072033
0.55201578 0.14840294 1.7076696
0.55773127 0.14790718 1.7078732
0.56258512 0.1479682 1.7085776
0.5673939 0.14647385 1.7091331
0.54289949 0.15269053 1.7096857
0.5474146 0.15265928 1.7093358
0.55205345 0.15266283 1.7093755
0.55677021 0.15268767 1.7096537
0.49339378 0.047947358 1.7145193
0.49741358 0.047887668 1.7123849
0.50342494 0.047871701 1.7118139
0.5080204 0.047868185 1.7116882
0.51262897 0.047865961 1.7116086
0.51722974 0.047863048 1.7115045
0.52182496 0.047859687 1.7113843
0.52795094 0.047855206 1.7112241
0.53254473 0.047851842 1.7111038
0.53713781 0.047848485 1.7109838
0.54326105 0.047844015 1.7108239
0.54786128 0.047841407 1.7107306
0.5524646 0.04783912 1.7106488
0.55706763 0.047836833 1.710567
0.56167012 0.047834545 1.7104852
0.56780612 0.047831498 1.7103763
0.57240766 0.047829211 1.7102945
0.57700872 0.047826923 1.7102127
0.58328146 0.047835242 1.7105101
0.58803451 0.047845326 1.7108707
0.59276509 0.047853425 1.7111604
0.59761101 0.047870651 1.7117763
0.60096198 0.047891572 1.7125244
0.49344385 0.051045913 1.7146932
0.49580061 0.052515004 1.7121484
0.60021341 0.052461021 1.7103913
0.49736482 0.057150766 1.7122205
0.60142517 0.057204966 1.7138443
0.49769419 0.061825696 1.7133534
0.50140285 0.063253894 1.7101839
0.59733903 0.061740637 1.7109971
0.49752551 0.067984663 1.7127724
0.50140297 0.06633947 1.7101843
0.59740323 0.066378139 1.7111812
0.60141337 0.068025589 1.7138107
0.49345174 0.072702922 1.7147206
0.49720126 0.072572991 1.7116561
0.6006549 0.072572701 1.7116494
0.49315879 0.07729733 1.7137027
0.496528 0.076666214 1.7111087
0.60284591 0.076707117 1.7120218
0.49199554 0.082943253 1.7132441
0.49532723 0.083325833 1.7105137
0.60350096 0.081804477 1.7109629
0.60780036 0.081967987 1.7143828
0.49104038 0.087078132 1.7135066
0.60744262 0.086556405 1.7133735
0.49135178 0.092708007 1.7127961
0.60730553 0.092718422 1.7129871
0.49139863 0.097352766 1.7129595
0.60779208 0.097432323 1.7143594
0.49200776 0.10149264 1.713286
0.49530736 0.1018391 1.710445
0.6036756 0.10189997 1.711458
0.49327934 0.10824353 1.7141216
0.49660113 0.10858338 1.7113608
0.60255206 0.10814891 1.7126493
0.497401 0.11276503 1.7123438
0.60111076 0.11280485 1.7129484
0.49820325 0.11695167 1.7133309
0.50159991 0.11729769 1.7108561
0.59755421 0.11734997 1.7116135
0.60171378 0.11601165 1.7146667
0.49951893 0.12217336 1.7143078
0.5033496 0.12197755 1.7115602
0.50752628 0.12495328 1.7100233
0.59418923 0.12192455 1.7108165
0.5985136 0.12217719 1.7143615
0.50334448 0.12622355 1.7132953
0.50655854 0.1281842 1.7119687
0.5930602 0.12664247 1.7120111
0.59542644 0.12836467 1.7143787
0.50704753 0.13294607 1.7136213
0.51190645 0.13325028 1.7109152
0.58477414 0.13423574 1.710363
0.58826518 0.13278499 1.7115419
0.59221292 0.13297808 1.7140303
0.5088439 0.13765079 1.7144628
0.5127914 0.13746533 1.712153
0.51683027 0.13730714 1.7101827
0.58163935 0.13731009 1.7102193
0.58720362 0.13752905 1.7129465
0.5136835 0.14168827 1.7134103
0.51819474 0.14151387 1.7112945
0.52164561 0.14352983 1.7107973
0.57774037 0.14250612 1.7108558
0.582425 0.14213093 1.7125293
0.58585107 0.1406661 1.713513
0.51649904 0.14690858 1.7142056
0.52218735 0.14831421 1.7125739
0.52741235 0.14870489 1.7111462
0.53228128 0.14965589 1.7102574
0.56787086 0.14968325 1.7105701
0.57278275 0.148214 1.7114153
0.57740158 0.14782742 1.712903
0.58321244 0.14696334 1.7148447
0.5182122 0.15004949 1.7147554
0.52273244 0.15310815 1.7143617
0.52837312 0.15295023 1.7125937
0.53265882 0.15284993 1.7114705
0.53698838 0.15276402 1.7105086
0.56164837 0.15275595 1.7104182
0.56664574 0.15285538 1.7115316
0.57179254 0.15299299 1.7130725
0.57706159 0.15316111 1.7149549
0.58012259 0.15005837 1.7148569
0.52733207 0.15618926 1.7142303
0.53178668 0.15768157 1.7136363
0.53756773 0.15756357 1.7123538
0.54292983 0.15696143 1.7114024
0.54708463 0.15800154 1.7115206
0.55268133 0.15746844 1.7113194
0.55742443 0.15750003 1.7116627
0.56233686 0.15757847 1.7125148
0.56735462 0.15768504 1.7136728
0.5705511 0.1561671 1.7139871
0.53814816 0.16237237 1.7142026
0.5425958 0.162315 1.7135971
0.54711866 0.16228096 1.7132378
0.55331755 0.16228586 1.7132895
0.55808765 0.16232467 1.7136992
0.56302691 0.16241151 1.7146161
0.54299325 0.16552787 1.7148522
0.54752606 0.16549516 1.7145135
0.55216336 0.16549434 1.714505
0.55532473 0.16551462 1.714715
0.49321628 0.044978861 1.7192926
0.49776533 0.044969451 1.7189331
0.50235116 0.044963539 1.7187071
0.50695866 0.044959638 1.718558
0.51157862 0.044956911 1.7184538
0.51773089 0.044952683 1.7182922
0.52234435 0.044949517 1.718171
0.52696562 0.044947069 1.7180774
0.53312653 0.04494381 1.717953
0.53774667 0.044941366 1.7178595
0.54236627 0.044938922 1.717766
0.54698539 0.044936474 1.7176726
0.55160171 0.044933848 1.7175722
0.5577476 0.044929668 1.7174124
0.56235558 0.044926479 1.7172905
0.56696284 0.044923291 1.7171686
0.57310498 0.044919044 1.7170062
0.57771134 0.044915896 1.7168859
0.58235919 0.044916 1.7168899
0.58707219 0.044921093 1.7170845
0.59178948 0.04492642 1.7172883
0.59810787 0.044935554 1.7176374
0.60304558 0.044957124 1.7184619
0.60668665 0.044997219 1.7199944
0.49122283 0.048037563 1.7177448
0.60591596 0.048039373 1.7178096
0.49219632 0.053196292 1.7175411
0.60561764 0.051113509 1.7169638
0.49284631 0.057343915 1.7180073
0.49287617 0.061996978 1.7181106
0.60212862 0.061915066 1.7158489
0.48870486 0.06981498 1.7197902
0.49253288 0.068148993 1.7169132
0.60582876 0.06817431 1.7175623
0.48845172 0.072880097 1.7188994
0.49095479 0.072791405 1.7168075
0.6049729 0.072720528 1.7151358
0.6095615 0.072899215 1.7193502
0.48730543 0.078031205 1.7185054
0.49065971 0.077390835 1.7157756
0.60849154 0.077415481 1.7163322
0.4867183 0.082153261 1.7182577
0.61261934 0.082199559 1.719226
0.48655009 0.086773276 1.7176639
0.61213237 0.086782917 1.7178595
0.48647356 0.092956953 1.7173939
0.61209798 0.092977583 1.7177628
0.48655251 0.097620636 1.7176728
0.4871628 0.10177198 1.7180028
0.49047953 0.10366602 1.7151456
0.60853422 0.10219721 1.7164527
0.48830351 0.10696172 1.7183778
0.49084091 0.108388 1.7164094
0.60723251 0.10843289 1.7171469
0.48856628 0.11012129 1.7193025
0.49245358 0.11304776 1.716637
0.60579383 0.11310218 1.7174634
0.49286589 0.11779253 1.7180741
0.49673128 0.11915361 1.7153623
0.6024124 0.11924358 1.7166575
0.60648978 0.11633436 1.7194364
0.49453092 0.12247004 1.7184707
0.49702144 0.12231991 1.7163643
0.60311264 0.12248303 1.718653
0.49483407 0.12564752 1.7195241
0.49825355 0.12650068 1.7170566
0.5001393 0.12851876 1.7164369
0.5994854 0.12702359 1.7171452
0.49792656 0.13184971 1.7194899
0.50190026 0.13322115 1.7171668
0.59638536 0.13321939 1.7171397
0.60046428 0.13188492 1.7199491
0.50237989 0.13799962 1.7188077
0.50623786 0.13778339 1.7161145
0.59309751 0.13782161 1.7165905
0.59735584 0.13809004 1.7199339
0.50398487 0.14111577 1.7189907
0.50803608 0.14249864 1.7169621
0.51214296 0.14389515 1.7151519
0.58802038 0.14236256 1.7153313
0.59194994 0.14256325 1.7177527
0.50853205 0.14728847 1.7186384
0.51248223 0.14708704 1.7162881
0.58694154 0.14712255 1.7167023
0.59080923 0.14731464 1.7189438
0.51205105 0.15139376 1.7183059
0.5166226 0.15225171 1.7163275
0.5828836 0.15230374 1.7169129
0.58777374 0.15198445 1.7191365
0.51350272 0.15668812 1.7197056
0.51772016 0.15810685 1.7182581
0.52327883 0.15791321 1.7161537
0.52770096 0.15939355 1.7154295
0.57320207 0.15839188 1.7157507
0.57782483 0.15801176 1.7172232
0.5825541 0.15765683 1.7189875
0.51962495 0.16286752 1.7194302
0.52241379 0.16276987 1.7183993
0.5266546 0.16264345 1.7170646
0.5323537 0.16249177 1.7154634
0.56806952 0.1625267 1.7158321
0.57154548 0.16263488 1.7169743
0.57681382 0.16281018 1.7188249
0.52277768 0.16598579 1.7195963
0.52720761 0.16746661 1.7188677
0.53292203 0.1673134 1.7172951
0.53724754 0.16721305 1.716265
0.54127264 0.16769688 1.7159361
0.5479427 0.16871682 1.7158182
0.55258304 0.16871582 1.715808
0.55776101 0.16768999 1.7158653
0.56204021 0.16721919 1.7163274
0.56710267 0.16734231 1.7175907
0.57229352 0.16750123 1.7192216
0.57553196 0.16598901 1.7196296
0.53349292 0.17214462 1.7191344
0.53782952 0.17204344 1.718124
0.54230773 0.17198908 1.717581
0.54836357 0.17194453 1.7171361
0.55300921 0.17194404 1.7171314
0.5578168 0.17199345 1.7176248
0.56272018 0.17207147 1.7184039
0.56610894 0.17215915 1.7192796
0.53823429 0.17527513 1.7194171
0.54334921 0.17629163 1.7192413
0.54744649 0.17679635 1.7191207
0.55210215 0.17679735 1.7191303
0.55826092 0.17523184 1.7189924
0.56319082 0.17531836 1.7198411
0.53374016 0.042014532 1.7249445
0.53837895 0.042012237 1.7248503
0.54301739 0.042009942 1.7247561
0.54765522 0.042007647 1.7246618
0.55229264 0.042005356 1.7245678
0.5569278 0.042002931 1.7244684
0.56309831 0.041999049 1.724309
0.56772447 0.041996058 1.7241861
0.57235169 0.041993201 1.7240686
0.57699168 0.041991308 1.723991
0.58163601 0.041989766 1.7239277
0.58783317 0.041988086 1.7238588
0.59252673 0.041990083 1.7239407
0.59723783 0.041993283 1.7240722
0.60195005 0.041996516 1.7242049
0.6051935 0.042005718 1.7245827
0.48801321 0.046625663 1.7228316
0.48929438 0.052813008 1.7218647
0.6071952 0.054352511 1.7214363
0.48951387 0.057498455 1.7226372
0.6072951 0.057467822 1.7217195
0.48845816 0.062676348 1.722571
0.6070326 0.062099762 1.7209752
0.48724735 0.06783165 1.7219524
0.61066139 0.068368398 1.7224526
0.48374039 0.071549609 1.7242146
0.48597324 0.072973616 1.7211051
0.61467004 0.073137954 1.7249811
0.48330876 0.077702165 1.7226763
0.48573345 0.076041341 1.7202559
0.61347848 0.077654526 1.7216371
0.481958 0.082399487 1.7234075
0.61774629 0.08246991 1.7248806
0.48181146 0.087037027 1.7228837
0.61762857 0.087121315 1.7245519
0.48178375 0.09324874 1.7227848
0.61751091 0.091771141 1.7242233
0.48189873 0.097934522 1.7231958
0.61291295 0.097755738 1.7200501
0.48327285 0.10255979 1.7225482
0.4857116 0.10397021 1.7201785
0.61373669 0.10254911 1.7223618
0.48360747 0.10729555 1.7237409
0.48595914 0.10712837 1.7210552
0.61465353 0.10736986 1.7249347
0.48386404 0.11046414 1.7246554
0.4871763 0.11234569 1.7217017
0.60988861 0.11018344 1.7202729
0.61057615 0.11341491 1.7222122
0.4880538 0.11812838 1.722973
0.60719597 0.11957567 1.7214384
0.61127263 0.11665508 1.7241766
0.48965946 0.12280349 1.7231495
0.49206355 0.12262782 1.7206848
0.60790372 0.12282453 1.7234449
0.48995268 0.12598783 1.7241814
0.49250513 0.12739927 1.7222289
0.49513763 0.12882891 1.720579
0.60416627 0.12735729 1.7216555
0.49295044 0.13217914 1.7237861
0.49544159 0.13201421 1.7216352
0.60522318 0.13224672 1.7246673
0.49325362 0.13537244 1.7248462
0.49714881 0.13671666 1.7221723
0.60148585 0.13677289 1.7228754
0.49814048 0.1425482 1.7238108
0.50248569 0.14334577 1.7209393
0.59428662 0.14430459 1.7200321
0.59833318 0.14297917 1.7227479
0.49950582 0.14782882 1.7249435
0.50334549 0.14758611 1.7221115
0.59491521 0.14756383 1.7218515
0.50367057 0.1507905 1.7232236
0.50691348 0.15274824 1.7219186
0.51050371 0.15361662 1.7200552
0.5917089 0.15219888 1.7215613
0.5955736 0.15083718 1.723757
0.50692219 0.15705283 1.7237082
0.51234156 0.15836 1.7210169
0.58698249 0.1583918 1.7213633
0.59261101 0.15709636 1.7241859
0.50855064 0.16018568 1.7239547
0.51229119 0.16213085 1.7225884
0.51687503 0.16297862 1.7206031
0.58222216 0.16302221 1.7210633
0.58754802 0.16165307 1.7230215
0.51374286 0.16744624 1.7239834
0.51826435 0.16723309 1.7217833
0.52174336 0.16925618 1.7213035
0.57826811 0.16825193 1.7216167
0.5830127 0.16790837 1.7234002
0.58646548 0.16645041 1.7244098
0.51793706 0.17264569 1.7241384
0.52210748 0.17248207 1.7225045
0.52776122 0.17229865 1.7206728
0.56955117 0.17226207 1.7203075
0.57304341 0.1723789 1.7214742
0.57654721 0.17249796 1.722663
0.58017021 0.17265119 1.7241933
0.5230608 0.17677312 1.7239385
0.52831888 0.17714287 1.7224907
0.53263295 0.17702726 1.7213662
0.53656507 0.17747563 1.7206966
0.54162794 0.1784734 1.7203429
0.55707312 0.1784496 1.7201135
0.56200159 0.17853631 1.7209494
0.56683171 0.17703851 1.7214746
0.57204497 0.17721011 1.7231431
0.57706422 0.17576349 1.7242078
0.52745515 0.18204203 1.7247462
0.53176713 0.18192044 1.7235941
0.53820556 0.18285561 1.7226348
0.54223931 0.18333653 1.7222848
0.54676104 0.18328984 1.7218461
0.55296373 0.18328634 1.7218131
0.55773163 0.18332188 1.722147
0.56246775 0.18179196 1.7223768
0.56755614 0.18192895 1.7236748
0.57104325 0.18204921 1.7248142
0.53361368 0.18513127 1.7245357
0.53818643 0.18665448 1.7242323
0.54285198 0.18820941 1.7242306
0.54739106 0.18816569 1.72383
0.55203557 0.1881586 1.7237651
0.55679429 0.18819019 1.7240546
0.56252962 0.18612771 1.7241548
0.48462218 0.042073306 1.7273576
0.48748431 0.042051364 1.7264566
0.49208498 0.042045243 1.7262055
0.49820545 0.042036094 1.7258297
0.50281209 0.042030733 1.7256097
0.50745344 0.042028356 1.725512
0.51208997 0.042025618 1.7253997
0.51672769 0.04202304 1.7252939
0.52291405 0.042019889 1.7251644
0.52755421 0.04201759 1.7250701
0.53064728 0.042016059 1.7250073
0.6085133 0.042020097 1.7251731
0.48494828 0.046779647 1.72852
0.486258 0.052990068 1.7276398
0.48623514 0.057662681 1.7275574
0.48382521 0.062881909 1.7282251
0.48710835 0.060694013 1.7251252
0.61239576 0.062329121 1.7273448
0.48299283 0.066995963 1.7271082
0.47894269 0.073323473 1.7293565
0.48140752 0.071665436 1.7270057
0.61562788 0.070134826 1.7276691
0.47866994 0.077959046 1.7283717
0.48099127 0.077830076 1.7255125
0.61843705 0.079446577 1.7268093
0.47845975 0.082600541 1.7276127
0.47833645 0.0872536 1.7271676
0.47839916 0.091939904 1.727394
0.61783063 0.094931155 1.725116
0.47851524 0.096638471 1.7278131
0.61842334 0.098137714 1.726771
0.47884977 0.10294521 1.7290211
0.48102099 0.10274265 1.7256191
0.61909139 0.10136257 1.7286363
0.48134729 0.10748532 1.7267896
0.4825252 0.11271041 1.7272921
0.6155917 0.11221017 1.7275674
0.48373339 0.11794576 1.727897
0.61200905 0.11991017 1.7262539
0.48494697 0.12318588 1.7285153
0.48725519 0.12298134 1.7256452
0.61274725 0.12317311 1.7283361
0.48686492 0.12730201 1.7279468
0.49024627 0.12917601 1.7252146
0.60888141 0.12769462 1.7262168
0.48812851 0.13255887 1.7287382
0.49054024 0.132368 1.7262491
0.60991496 0.1325902 1.729147
0.48842388 0.13575999 1.7297843
0.49184027 0.13763233 1.7271713
0.60621673 0.13713983 1.7274985
0.49315014 0.14290458 1.7281214
0.49667445 0.1447985 1.7259194
0.60288405 0.14332215 1.7268801
0.49446994 0.148185 1.7290996
0.49698988 0.14800639 1.7270155
0.59931338 0.14788252 1.7255701
0.60386705 0.14823611 1.7296959
0.49825013 0.15222985 1.7277876
0.50141919 0.1541633 1.7261765
0.59810472 0.15264028 1.7265725
0.6006422 0.15445085 1.7293961
0.5017404 0.15737846 1.7272823
0.59689474 0.15740567 1.7275808
0.50260317 0.16164409 1.7284621
0.50703776 0.16243917 1.7258648
0.58978307 0.16339636 1.7250134
0.59351617 0.16201046 1.7268195
0.59755754 0.16070086 1.7294991
0.50400525 0.16696149 1.7297045
0.50845248 0.16775322 1.7271446
0.51218951 0.16969196 1.7257352
0.58704114 0.16972809 1.7261025
0.59192574 0.16785939 1.7282377
0.50840569 0.17154774 1.7287507
0.51252699 0.17291944 1.7268722
0.51520753 0.17277353 1.7254151
0.58380216 0.17280543 1.7257338
0.58761799 0.1730122 1.7277986
0.51209432 0.17728369 1.7289191
0.51710045 0.17755932 1.7265402
0.52143568 0.1790003 1.7254219
0.57758486 0.17903574 1.7257634
0.58278579 0.17764109 1.7273334
0.58819592 0.17630276 1.7294979
0.51763284 0.182419 1.7283177
0.52320254 0.18218675 1.7261174
0.57454562 0.18217301 1.7259871
0.57810634 0.18231386 1.7273215
0.581743 0.18247703 1.7288675
0.51937473 0.18560238 1.7289243
0.5232231 0.1865323 1.7279
0.52713352 0.18748386 1.7270931
0.53192657 0.1873423 1.7257919
0.53690881 0.18830714 1.7251259
0.56722885 0.18734677 1.7258328
0.57179236 0.18696275 1.7270768
0.57641292 0.18659379 1.7284728
0.52716231 0.19183731 1.7288899
0.53312933 0.19329904 1.7280093
0.53750294 0.19319004 1.7270349
0.54196882 0.19311595 1.7263726
0.54802513 0.19305494 1.725827
0.5526818 0.19305003 1.7257831
0.55746949 0.19309056 1.7261453
0.56241786 0.19318575 1.7269957
0.56689948 0.19277734 1.7279924
0.5725432 0.19188778 1.7293447
0.52897817 0.19505094 1.7297264
0.53664255 0.19812107 1.729284
0.54258311 0.19801173 1.7283295
0.54712451 0.19796243 1.7278993
0.55176312 0.1979489 1.7277813
0.55814624 0.19800153 1.7282406
0.56313807 0.19811228 1.7292073
0.56953371 0.19504578 1.7296807
0.54299355 0.20128214 1.7296368
0.547548 0.20123559 1.7292367
0.55219281 0.20122279 1.7291268
0.55695558 0.20125285 1.729385
0.56024259 0.20131281 1.7299002
0.48336661 0.03910733 1.7340337
0.48782259 0.039088361 1.7331924
0.4924548 0.039083716 1.7329866
0.49712786 0.039082382 1.7329274
0.50335693 0.039080508 1.7328444
0.50801438 0.039078027 1.7327344
0.51266468 0.039075054 1.7326025
0.51731431 0.039072078 1.7324705
0.52196687 0.039069377 1.7323508
0.52817452 0.039066166 1.7322085
0.53282964 0.039063759 1.7321017
0.53748417 0.039061353 1.7319949
0.5421381 0.039058942 1.7318882
0.54679143 0.039056532 1.7317815
0.55299509 0.039053328 1.7316391
0.55764717 0.039050922 1.7315325
0.56230044 0.039048649 1.7314317
0.56696272 0.039047018 1.7313595
0.57162726 0.03904558 1.7312957
0.57784623 0.039043665 1.7312107
0.58250999 0.039042227 1.7311469
0.58717346 0.039040789 1.7310832
0.59339082 0.03903887 1.7309983
0.59807968 0.039039146 1.7310103
0.60281324 0.039042301 1.7311504
0.60755736 0.039046101 1.7313188
0.61073631 0.039049637 1.7314756
0.48299745 0.042203661 1.7327094
0.48305947 0.046899363 1.7329319
0.61346912 0.045268714 1.7303722
0.48336303 0.053185359 1.7340208
0.48294172 0.057827972 1.7325095
0.61399484 0.05780613 1.731855
0.4799701 0.064100243 1.7330663
0.4814778 0.060966536 1.7328713
0.61789894 0.064136341 1.7340424
0.47960848 0.067176431 1.7317606
0.6166063 0.067124233 1.7304149
0.47772682 0.071372867 1.732495
0.62075418 0.073489785 1.7332791
0.47648668 0.078112349 1.7317703
0.61959344 0.07647375 1.7300382
0.47417256 0.082941078 1.7347351
0.47629893 0.082766697 1.7310879
0.47417879 0.087637067 1.7347579
0.4762516 0.087442987 1.730916
0.62433869 0.086061724 1.7345496
0.47423831 0.092343427 1.7349756
0.47631934 0.092140466 1.7311622
0.47643036 0.096848339 1.7315657
0.47670731 0.10315657 1.7325723
0.61991185 0.10461988 1.7309272
0.47805774 0.10779767 1.7318077
0.62128574 0.10798165 1.7347634
0.47874987 0.11200347 1.7324266
0.47989097 0.1172372 1.7327806
0.6170637 0.11716399 1.7316985
0.48139322 0.12191203 1.7325664
0.61812276 0.12049481 1.7346705
0.48307291 0.12819456 1.7329801
0.48549971 0.12957066 1.7304854
0.61424768 0.12816498 1.7325683
0.48349002 0.13299887 1.7344764
0.48577923 0.13276924 1.7314818
0.48703933 0.13803799 1.732263
0.61105663 0.13752779 1.7323836
0.4878177 0.14228052 1.7331789
0.60717845 0.14203916 1.730239
0.48946056 0.14699502 1.7334557
0.49186778 0.14678006 1.7309208
0.60820246 0.14697021 1.7331572
0.49323645 0.15260766 1.7320756
0.49509752 0.15462036 1.7312942
0.60453624 0.15152457 1.7316126
0.60522836 0.15482587 1.7335951
0.49291211 0.15804484 1.7345959
0.49667555 0.15774944 1.7313539
0.60129923 0.15774344 1.731288
0.49714911 0.16259047 1.7330048
0.50109506 0.1639096 1.7304317
0.59822178 0.16400336 1.7314216
0.601969 0.16104627 1.7332164
0.49888843 0.16733876 1.7336129
0.50141317 0.16713771 1.7315302
0.59888262 0.16731185 1.7333342
0.4992055 0.17057492 1.7347146
0.5031957 0.17189994 1.7322922
0.50725889 0.17324841 1.7301576
0.59153003 0.17324494 1.7301229
0.59546459 0.17191976 1.7324884
0.50368339 0.17675874 1.7339711
0.50693589 0.17870517 1.7326132
0.51055145 0.17955174 1.7307372
0.58877498 0.17959981 1.7312006
0.59243667 0.17820075 1.7327746
0.50825274 0.182971 1.7335476
0.51221877 0.18271244 1.7310979
0.58741736 0.18278649 1.7317995
0.50858891 0.18622178 1.734694
0.5127281 0.18758421 1.7328191
0.51776129 0.18785138 1.7304829
0.57915211 0.18888788 1.7304462
0.58253276 0.18741071 1.7312145
0.58754367 0.18715906 1.7337099
0.51456171 0.19237414 1.7337279
0.51730078 0.19222958 1.7324252
0.52149725 0.19204855 1.7307937
0.57787728 0.19210494 1.7313018
0.58333904 0.19236113 1.7336107
0.51489443 0.19562858 1.734849
0.51782918 0.1971198 1.7341949
0.52204514 0.19693989 1.732612
0.52731746 0.19728893 1.731105
0.5322454 0.1982263 1.7302024
0.56655729 0.198217 1.7301214
0.57220954 0.19733191 1.7314819
0.57685447 0.19697538 1.7329228
0.58020163 0.19548573 1.7335821
0.52259243 0.20183977 1.7344286
0.52795118 0.2027383 1.7331868
0.53192973 0.20370753 1.7325653
0.53723943 0.20302722 1.7312073
0.54340452 0.20455751 1.7309459
0.54797214 0.2045138 1.7305762
0.5526253 0.20450258 1.7304811
0.55739939 0.20453592 1.7307632
0.56280893 0.20356959 1.7313938
0.56728518 0.20316064 1.7323442
0.57187778 0.20279013 1.7336326
0.53196436 0.20809206 1.734376
0.53784096 0.20794442 1.7331455
0.54231566 0.20786163 1.7324554
0.54685903 0.20780645 1.7319956
0.5530588 0.20778762 1.7318385
0.55784392 0.20782422 1.7321435
0.56287712 0.20795168 1.7332059
0.56801558 0.20811589 1.7345746
0.5382427 0.21122909 1.7344401
0.54272681 0.21114731 1.7337687
0.54749233 0.21274051 1.7340014
0.55213892 0.2127227 1.7338562
0.55629557 0.21219575 1.7338117
0.56164706 0.21120432 1.7342368
0.48146212 0.039207011 1.7384536
0.51169378 0.036101099 1.7399307
0.51791942 0.036097419 1.7397534
0.52258784 0.036094654 1.7396202
0.52725554 0.036091894 1.7394872
0.53192377 0.036089223 1.7393583
0.53659779 0.036086988 1.7392507
0.54282904 0.036084011 1.7391071
0.54750174 0.036081776 1.7389995
0.55217385 0.036079545 1.738892
0.5583992 0.036076352 1.7387381
0.5630641 0.036073744 1.7386123
0.56772822 0.036071133 1.7384865
0.57239193 0.036068533 1.7383611
0.57708526 0.036067829 1.7383273
0.58334279 0.03606689 1.738282
0.58803564 0.036066186 1.7382481
0.59272838 0.036065485 1.7382143
0.59742093 0.036064781 1.7381804
0.60211545 0.036064208 1.7381526
0.60836571 0.036062919 1.7380905
0.61305684 0.036062166 1.7380544
0.48123065 0.042323217 1.7376179
0.61516464 0.042263221 1.7351546
0.48167235 0.04706949 1.7392128
0.48142332 0.053316593 1.7383136
0.61593205 0.054853998 1.7373192
0.47874969 0.058077831 1.7399951
0.48082215 0.057949249 1.7361429
0.47802037 0.062690511 1.7373445
0.61975223 0.061190728 1.7392435
0.47641772 0.067388274 1.7372217
0.47467029 0.073628724 1.7365561
0.47500858 0.07054583 1.7377936
0.6218732 0.070489407 1.7364037
0.47440702 0.078284696 1.7355928
0.47223425 0.081581712 1.7391232
0.62479991 0.08299347 1.735831
0.6259371 0.080006994 1.7389903
0.47219273 0.087849885 1.7389703
0.62457764 0.089225382 1.7352135
0.47225782 0.092568807 1.73921
0.62525731 0.092456594 1.7371017
0.4733597 0.097180426 1.7375028
0.47464144 0.10338756 1.7364504
0.474933 0.10815306 1.7375171
0.47598329 0.11337902 1.7375418
0.62282699 0.1113872 1.739067
0.47665584 0.11759644 1.73809
0.47809389 0.12226706 1.7376117
0.61918926 0.12383785 1.7376635
0.47848558 0.12707321 1.7390352
0.48064196 0.12681432 1.7354922
0.47874707 0.13028198 1.7399856
0.48105395 0.13162434 1.7369798
0.61581743 0.13319206 1.7369959
0.48275942 0.13793209 1.7374833
0.484328 0.14263381 1.7374827
0.61239922 0.1425277 1.73619
0.48474813 0.14746428 1.7389898
0.48704773 0.14721105 1.7360032
0.61330438 0.14587547 1.7387562
0.4886986 0.1519355 1.7363086
0.60936987 0.15195085 1.7364839
0.48793596 0.15689307 1.7391691
0.49035263 0.15666264 1.7366149
0.60592216 0.15813471 1.7355824
0.61015391 0.15528338 1.738718
0.49215603 0.16300796 1.7374549
0.60265887 0.16436151 1.7352027
0.60697973 0.1631169 1.7386116
0.4938207 0.16774227 1.7377932
0.49635759 0.16754027 1.7357005
0.60335034 0.16768438 1.7371935
0.49413529 0.17098649 1.7389003
0.49772868 0.17287348 1.7368445
0.59953749 0.17062555 1.7352296
0.60211861 0.1724807 1.7381592
0.49857354 0.17716642 1.7379701
0.59645951 0.1769027 1.7353832
0.6008516 0.17727475 1.739033
0.50160068 0.18183109 1.737594
0.50563127 0.18315437 1.7352849
0.59336394 0.18317567 1.7354867
0.59744054 0.18189877 1.7382374
0.50352913 0.1882357 1.7388372
0.50705594 0.1885144 1.7365917
0.59307647 0.1886348 1.7377001
0.50793886 0.19282892 1.7378266
0.51188439 0.19254367 1.7352558
0.58721709 0.19260721 1.7358284
0.59110504 0.19285391 1.7380518
0.50881481 0.19714642 1.7390336
0.51238722 0.19743413 1.7369604
0.51522976 0.19888809 1.7359788
0.5830459 0.19782864 1.7358408
0.58808982 0.19759896 1.7384083
0.59169114 0.19618405 1.7397749
0.51289219 0.20233363 1.7386723
0.51696742 0.20208745 1.7365569
0.57763255 0.20193659 1.7352605
0.58125496 0.20210753 1.7367294
0.58507311 0.20234431 1.7387642
0.5132333 0.20560722 1.7398285
0.51750207 0.2070016 1.738353
0.52314806 0.20675385 1.7362725
0.52762598 0.20823221 1.7355441
0.57305926 0.20667726 1.7356331
0.57730871 0.20741348 1.7374262
0.5820635 0.20709611 1.739145
0.51944083 0.21185653 1.7395922
0.5222863 0.21173768 1.7386163
0.52675414 0.21321073 1.7378342
0.53254664 0.21301937 1.7362745
0.53715533 0.21454892 1.7359817
0.54163432 0.21446222 1.7352802
0.5587641 0.21442768 1.7350007
0.56212842 0.21451698 1.7357233
0.56703764 0.21303122 1.7363702
0.57230473 0.21324301 1.7380962
0.57740694 0.21182026 1.7392944
0.52265674 0.21502694 1.7398496
0.52877134 0.21809855 1.7393115
0.53312916 0.21795586 1.7381735
0.53754836 0.2178403 1.7372519
0.54204273 0.21775714 1.7365887
0.54812497 0.21768394 1.7360049
0.55279148 0.21767142 1.7359052
0.55759585 0.21771291 1.7362361
0.56261063 0.21783532 1.7372122
0.56777704 0.21801363 1.7386342
0.53351653 0.22125258 1.7394366
0.5381391 0.22278702 1.739161
0.54264879 0.22270623 1.7385303
0.54721159 0.22264829 1.7380779
0.55188 0.22263402 1.7379664
0.55765939 0.2221235 1.7380623
0.5616343 0.22277158 1.7390426
0.56652421 0.221274 1.7396051
0.55094737 0.22759932 1.7399724
0.47988227 0.03933461 1.7441114
0.4821879 0.036124825 1.7410743
0.48671246 0.036110926 1.7404044
0.49295956 0.036108505 1.7402877
0.49765164 0.036107216 1.7402256
0.50234318 0.036105916 1.7401628
0.50702381 0.036103863 1.7400639
0.47982737 0.05191575 1.743912
0.47804612 0.056611925 1.7431573
0.47381678 0.064539827 1.7449514
0.47599036 0.062836222 1.7413855
0.47334611 0.067620873 1.7432179
0.62385231 0.067570902 1.7419298
0.47284293 0.072261184 1.741365
0.47153914 0.077018395 1.7423595
0.62721694 0.077026643 1.7425461
0.47033751 0.081797659 1.7437242
0.4703089 0.088084638 1.7436181
0.47037306 0.092816092 1.7438561
0.47057891 0.097578466 1.7446191
0.62661189 0.095797807 1.7408651
0.47260493 0.10205755 1.7404884
0.47288418 0.1068313 1.7415167
0.47327998 0.11321017 1.7429744
0.62489527 0.11490517 1.7448419
0.4736096 0.11800904 1.7441883
0.47599924 0.12253489 1.7414179
0.47639009 0.12735181 1.7428478
0.620372 0.12721552 1.7409827
0.47751567 0.13261409 1.7431353
0.62164974 0.13062514 1.7445686
0.4793736 0.13831151 1.7422627
0.61741388 0.13825178 1.7414989
0.47977209 0.14314511 1.743711
0.48202765 0.14288116 1.7404957
0.48164359 0.14727087 1.7428976
0.61418819 0.14922731 1.7412618
0.48286474 0.15256639 1.7435182
0.4851689 0.15230221 1.7404993
0.61512393 0.15260108 1.7439147
0.4831444 0.15580226 1.7445281
0.48559049 0.15714948 1.7420117
0.61089486 0.1586128 1.7408295
0.48769119 0.16291313 1.7420341
0.61171395 0.16197054 1.7431637
0.48763606 0.16673958 1.7437096
0.49139914 0.16798629 1.7403213
0.60809141 0.16812864 1.741796
0.48927703 0.17148295 1.7439492
0.49271631 0.17331487 1.7412802
0.60474783 0.17435586 1.7412173
0.60883117 0.17147958 1.743915
0.49353302 0.1776094 1.7423158
0.60545343 0.17770451 1.7432488
0.49260148 0.18098776 1.7445794
0.49651083 0.18226433 1.741734
0.60183811 0.18228079 1.741888
0.49698648 0.18715665 1.7434026
0.50081319 0.18682373 1.7403013
0.59842366 0.18690921 1.7410977
0.60285479 0.18730997 1.7448307
0.49874157 0.19194523 1.7440369
0.50220805 0.19219041 1.7415109
0.59804076 0.19235809 1.7430305
0.50323361 0.19814911 1.7432506
0.50727564 0.19945513 1.7409282
0.59226906 0.1995177 1.7414743
0.59597623 0.19656207 1.7431272
0.50498855 0.20293932 1.7438771
0.50759852 0.2027251 1.7420362
0.51023179 0.20252278 1.7402977
0.58896494 0.20260394 1.740995
0.59287262 0.20286623 1.7432489
0.50715923 0.2071646 1.7441303
0.51167566 0.20791763 1.7416509
0.58713943 0.20688684 1.7417903
0.59007323 0.2092793 1.7442712
0.51258039 0.21226516 1.7429476
0.51665562 0.21200155 1.740783
0.58292192 0.21211444 1.7417099
0.58678699 0.212376 1.7438576
0.51349479 0.21662273 1.7442722
0.51807636 0.21634638 1.7420424
0.5216068 0.21838379 1.7415862
0.52587783 0.21820006 1.7401209
0.57307905 0.21824105 1.7404479
0.57750458 0.21623726 1.7411667
0.58187151 0.21702215 1.7432699
0.51776266 0.22189829 1.744513
0.52258134 0.22276573 1.7430887
0.5278973 0.22310019 1.7416058
0.53242821 0.22459362 1.7410079
0.53537995 0.22451416 1.740392
0.56357753 0.22448909 1.7401977
0.5670113 0.22460558 1.7411007
0.57206631 0.22316919 1.7421434
0.5771789 0.22174993 1.7433467
0.58076078 0.22191672 1.7446579
0.52255428 0.22665012 1.7447478
0.52846909 0.22805974 1.7434921
0.53281164 0.22789878 1.7422616
0.53725088 0.22778189 1.7413681
0.54325604 0.22766516 1.7404757
0.54784262 0.2276137 1.7400823
0.55411714 0.22761185 1.7400681
0.55733675 0.22764458 1.7403183
0.56236863 0.22777486 1.7413142
0.56749976 0.22794311 1.7426006
0.57104999 0.22810538 1.7438411
0.57769465 0.22509627 1.7449044
0.53235918 0.23235023 1.7442125
0.5378409 0.23275055 1.7432806
0.5423336 0.23265386 1.7425563
0.54693449 0.23260495 1.7421898
0.55258083 0.23203219 1.7418236
0.55703491 0.23319013 1.7426486
0.56246734 0.23222141 1.7432443
0.56652904 0.23290682 1.744453
0.53991657 0.23768923 1.7449056
0.54294288 0.23763587 1.7445139
0.54756498 0.23759288 1.7441982
0.55225527 0.23757991 1.7441031
0.55712414 0.23764327 1.7445683
0.48256296 0.033117086 1.7481239
0.48718563 0.033109702 1.7477341
0.49189717 0.033108462 1.7476687
0.4981795 0.033106867 1.7475843
0.50289088 0.033105668 1.7475212
0.50758815 0.033103578 1.7474108
0.5122779 0.033101033 1.7472765
0.51696688 0.033098489 1.7471423
0.5232178 0.033095103 1.7469635
0.52790517 0.033092562 1.7468293
0.5325917 0.033090018 1.7466952
0.53727764 0.033087481 1.7465611
0.54196346 0.033084981 1.7464291
0.54821736 0.033082083 1.7462763
0.55290461 0.033079762 1.7461537
0.55758971 0.033077359 1.7460268
0.56227422 0.033074956 1.7458999
0.56695795 0.03307255 1.7457731
0.57320195 0.033069346 1.7456038
0.57788426 0.033066943 1.7454771
0.58257258 0.033064932 1.7453707
0.58728117 0.033064086 1.7453262
0.59199297 0.033063438 1.7452919
0.59829015 0.033063401 1.74529
0.60304326 0.033065036 1.7453763
0.60778731 0.033066146 1.745435
0.61249644 0.03306536 1.7453935
0.6158421 0.033075921 1.7459508
0.48017389 0.036209833 1.7451713
0.48035529 0.042523254 1.7458307
0.48036373 0.04724849 1.7458613
0.47809502 0.052069753 1.7490852
0.47490489 0.058377013 1.7489586
0.47737589 0.055142432 1.7464544
0.47314411 0.063087404 1.7482872
0.47153866 0.067813255 1.7481774
0.4709878 0.072459102 1.7461351
0.46873394 0.077333204 1.7494813
0.46850145 0.082027048 1.7486136
0.46848315 0.088333562 1.7485453
0.46861938 0.09309274 1.7490538
0.46878335 0.097860679 1.7496657
0.62905085 0.099323824 1.7476411
0.47078729 0.10234506 1.7453917
0.47101602 0.10712096 1.7462397
0.47124493 0.11190097 1.7470884
0.47151351 0.116696 1.7480841
0.47324657 0.12238219 1.7467259
0.47428632 0.12763187 1.7466805
0.47467276 0.13246724 1.7481037
0.62293202 0.13404866 1.748167
0.4760974 0.1371544 1.747551
0.47751954 0.14183789 1.74698
0.61900806 0.14333266 1.7459955
0.47801709 0.14829615 1.7488
0.48030633 0.14960361 1.7456527
0.6200757 0.14673547 1.749007
0.48057386 0.15283825 1.7466251
0.481792 0.15814559 1.7472368
0.61674643 0.157737 1.7485147
0.48254684 0.16242635 1.7480693
0.48412591 0.16715793 1.7480719
0.48657581 0.16849065 1.7455465
0.61300051 0.16703974 1.7468297
0.48454756 0.17203805 1.7495944
0.4878625 0.17382421 1.7463975
0.60958761 0.17484295 1.7460816
0.4886649 0.17812666 1.74739
0.61037117 0.17822208 1.7483261
0.48775393 0.18152654 1.7497728
0.49118531 0.18334104 1.7470089
0.60651457 0.18274295 1.746304
0.49199119 0.18765093 1.7480068
0.60758317 0.18779844 1.7493809
0.49365842 0.19241686 1.7483227
0.49619001 0.19217569 1.7461311
0.60390812 0.19236851 1.7478794
0.49411273 0.19732936 1.7499316
0.49794793 0.19697344 1.7467754
0.59661728 0.19992189 1.7450023
0.60036111 0.19696887 1.7467347
0.49880719 0.20131026 1.7479445
0.50244606 0.20318352 1.7459755
0.59725976 0.20328894 1.7468814
0.60100824 0.20033608 1.7486175
0.50201225 0.20763884 1.7481235
0.50562513 0.20949577 1.7460754
0.59382313 0.20791769 1.7460438
0.59790355 0.20666324 1.7487644
0.50337952 0.21302897 1.7492193
0.50726748 0.21267459 1.7463094
0.59269691 0.21280295 1.7473633
0.50776553 0.21761465 1.748024
0.51192701 0.21894725 1.7460797
0.58404034 0.21881835 1.7450517
0.58759922 0.21739669 1.7462715
0.59149742 0.21767184 1.748481
0.50959742 0.22245584 1.7488964
0.51227307 0.22224769 1.74726
0.51500016 0.22206429 1.745818
0.58457929 0.22217165 1.7466621
0.58841348 0.22242977 1.7486913
0.51280689 0.22721346 1.7490807
0.51693439 0.22694765 1.7470345
0.52132833 0.22837645 1.7459134
0.57462829 0.228277 1.7451531
0.57819307 0.2284414 1.7464099
0.58156836 0.22695422 1.7470839
0.58538985 0.22721404 1.7490839
0.51748985 0.23192407 1.7489116
0.52371603 0.23270465 1.7468735
0.52759182 0.23308592 1.7457925
0.53068221 0.23463397 1.745597
0.56849307 0.23464118 1.7456506
0.57180774 0.23313442 1.746155
0.5764792 0.23279905 1.7475815
0.58237785 0.23200418 1.7495158
0.51925218 0.23516284 1.7495316
0.52226412 0.23667613 1.7490473
0.52671975 0.23812798 1.7481265
0.53251892 0.23790063 1.7464575
0.53694552 0.23776767 1.7454814
0.56216604 0.23777892 1.745564
0.56727648 0.23794083 1.7467526
0.57254851 0.23816757 1.7484171
0.57765549 0.23674423 1.7495537
0.52709842 0.24145547 1.7493832
0.53310019 0.24289253 1.7483637
0.53753495 0.2427583 1.7473974
0.5420475 0.24266148 1.7467002
0.54819643 0.24259335 1.7462099
0.55295169 0.24260625 1.7463024
0.55784529 0.24267904 1.7468263
0.56290233 0.24282131 1.7478502
0.56735539 0.24240156 1.7486157
0.57304358 0.24153076 1.7499288
0.53664654 0.24780455 1.7496412
0.54267269 0.24767336 1.7487149
0.54728043 0.2476168 1.7483156
0.55203485 0.24762702 1.7483877
0.55688995 0.24768193 1.7487755
0.56023413 0.24776553 1.7493657
0.54460716 0.25099286 1.7498612
0.54769832 0.25096264 1.7496506
0.55250525 0.25099522 1.7498777
0.47950467 0.033232998 1.7542423
0.50186568 0.030080276 1.7549615
0.50657576 0.03007794 1.7548251
0.51285183 0.030074649 1.7546332
0.51755923 0.030072248 1.7544931
0.52226573 0.030069847 1.754353
0.52697158 0.030067446 1.754213
0.53167653 0.030065047 1.7540729
0.53794885 0.030061848 1.7538865
0.5426597 0.030059868 1.7537708
0.54738557 0.030058745 1.7537054
0.55211109 0.030057624 1.7536399
0.5568186 0.030055551 1.7535189
0.56308466 0.030052273 1.7533277
0.56778336 0.030049816 1.7531843
0.57248116 0.030047357 1.753041
0.57717836 0.0300449 1.7528976
0.58187473 0.030042445 1.7527543
0.5881353 0.030039171 1.7525632
0.59286225 0.030038353 1.7525156
0.59763467 0.030039839 1.7526022
0.60240757 0.030041322 1.7526888
0.60718095 0.030042807 1.7527754
0.61197734 0.030045399 1.7529267
0.61516267 0.030046508 1.7529913
0.47899145 0.047423691 1.7523648
0.47641414 0.05223145 1.7545167
0.47318086 0.058554154 1.7542657
0.47560355 0.055302739 1.7515316
0.47249347 0.061629582 1.7517172
0.46981025 0.068019666 1.7534986
0.46921957 0.072673142 1.7512939
0.46677378 0.082278609 1.7539767
0.46672845 0.087017171 1.7538064
0.46691182 0.091799833 1.7544954
0.46897104 0.10263676 1.7503663
0.46918797 0.10742377 1.751176
0.46944368 0.11222391 1.7521304
0.46971297 0.11703317 1.7531356
0.46999165 0.12184969 1.7541757
0.47207764 0.12472954 1.7501756
0.47125435 0.12650996 1.7529926
0.47267109 0.13279095 1.7523758
0.47302455 0.1376359 1.7536861
0.6242131 0.13748491 1.7517623
0.47325918 0.14086978 1.7545559
0.47541636 0.14215147 1.7508421
0.47578698 0.14700395 1.752207
0.47690883 0.15229468 1.752462
0.62132084 0.15019205 1.752519
0.47805071 0.15759341 1.7527844
0.47921258 0.16290064 1.7531737
0.61832374 0.16288324 1.7529863
0.47948065 0.16615666 1.7541544
0.48180872 0.16744876 1.7511132
0.48222923 0.17233767 1.7526414
0.61419755 0.17210163 1.750241
0.48337635 0.17658941 1.752984
0.48511013 0.17855845 1.7516259
0.61538506 0.17559831 1.7536249
0.48672324 0.18331085 1.7517474
0.61124986 0.18163756 1.7508429
0.48666206 0.18717794 1.7534251
0.6121136 0.1850576 1.753317
0.48880792 0.1929926 1.7535539
0.49122953 0.19270146 1.7509084
0.60878301 0.1929141 1.7528355
0.49168223 0.19762148 1.7525221
0.60496473 0.1974428 1.7509376
0.49336219 0.20240596 1.7528778
0.49731025 0.2036604 1.7500733
0.60165673 0.20371054 1.7505043
0.60571092 0.20084931 1.7530972
0.49634999 0.20707634 1.7522601
0.50052255 0.20999841 1.7502648
0.60234463 0.20710538 1.7525058
0.49720708 0.21143192 1.7534232
0.50083148 0.21328786 1.7513452
0.59886789 0.21173777 1.7515848
0.60307026 0.21052058 1.7546169
0.4985854 0.21684508 1.7545606
0.50257063 0.2180976 1.7519035
0.59709936 0.21765368 1.7525746
0.5030365 0.22304492 1.7535276
0.5069446 0.2226766 1.7506319
0.59239173 0.22273928 1.7511247
0.59669232 0.22316608 1.7544801
0.50479281 0.22786938 1.7541304
0.50828248 0.22701649 1.7516173
0.51028037 0.22907323 1.7512401
0.58924425 0.22748379 1.7511601
0.59328902 0.22782379 1.7537773
0.50795954 0.23261699 1.7541368
0.51198965 0.23229189 1.7516854
0.58620232 0.23226885 1.7515116
0.59012604 0.23256978 1.7537808
0.51251763 0.23727751 1.7534918
0.51764208 0.23749435 1.7512048
0.5797087 0.23851776 1.7509879
0.5831899 0.2370698 1.7519553
0.5870173 0.23733927 1.7539467
0.51442099 0.24217358 1.7545862
0.51858592 0.24190161 1.7526157
0.52300179 0.2433307 1.7515178
0.52748156 0.24478951 1.7506547
0.56998366 0.24472983 1.7502278
0.57353944 0.24489975 1.751443
0.57661688 0.24170516 1.7511925
0.58212584 0.24202481 1.7535083
0.51754075 0.24531749 1.7544305
0.52154624 0.24732615 1.7537082
0.52786517 0.24812843 1.751928
0.53222054 0.24794845 1.7506572
0.56362689 0.24786952 1.7500999
0.56701225 0.24796915 1.7508034
0.57225966 0.24818972 1.7523607
0.57736635 0.24676546 1.7534684
0.58078772 0.24529181 1.754247
0.52392679 0.2516748 1.7546155
0.52789277 0.25260898 1.7537705
0.53189582 0.25356078 1.7530589
0.53726512 0.25283134 1.7516578
0.54178369 0.25272769 1.7509397
0.54657555 0.25433147 1.7511106
0.55297792 0.2543698 1.7513746
0.55759513 0.25273502 1.7509899
0.56265229 0.25287798 1.7519803
0.56773591 0.2530306 1.7530379
0.57233596 0.25267211 1.7542108
0.5333702 0.25798023 1.7544388
0.53787971 0.25786594 1.7536614
0.5424149 0.25776568 1.7529796
0.54701865 0.25769955 1.7525296
0.55183297 0.25773287 1.7527565
0.55668318 0.25778222 1.7530921
0.56167471 0.25789571 1.7538639
0.56506658 0.2579996 1.7545704
0.53980184 0.26119444 1.7547666
0.54283118 0.26112872 1.754325
0.54746234 0.26107305 1.7539512
0.55229777 0.26111498 1.7542329
0.55714345 0.26116094 1.7545415
0.48162919 0.030101877 1.7562218
0.48767054 0.030083574 1.7551539
0.49240184 0.030082427 1.755087
0.49713385 0.03008135 1.7550242
0.47997111 0.036433451 1.7559488
0.48017135 0.039618097 1.7566813
0.47978249 0.042752896 1.7552587
