# .PCD v0.7 - Point Cloud Data file format
VERSION 0.7
FIELDS x y z
SIZE 4 4 4
TYPE F F F
COUNT 1 1 1
WIDTH 1439
HEIGHT 1
VIEWPOINT 0 0 0 1 0 0 0
POINTS 1439
DATA ascii
-0.56385738 0.48634261 1.3859006
-0.56125069 0.48625061 1.3856385
-0.55864537 0.48615897 1.3853773
-0.55604106 0.48606735 1.3851162
-0.55350471 0.48603463 1.385023
-0.55101639 0.48604393 1.3850495
-0.54861295 0.48612854 1.3852906
-0.54620862 0.48621318 1.3855318
-0.54380351 0.48629785 1.3857731
-0.55636942 0.48885494 1.3859342
-0.55360532 0.48862234 1.3852748
-0.55122977 0.48873207 1.3855859
-0.5771935 0.48704615 1.3879055
-0.57447058 0.48686066 1.3873769
-0.57179236 0.48671165 1.3869523
-0.56914383 0.48658669 1.3865962
-0.5664956 0.48646089 1.3862377
-0.54140449 0.4863888 1.3860322
-0.53902817 0.48650107 1.3863522
-0.53665078 0.48661342 1.3866724
-0.53427261 0.48672608 1.3869934
-0.53191668 0.48686022 1.3873756
-0.52958542 0.48701826 1.387826
-0.562033 0.48943183 1.3875698
-0.55919951 0.48914322 1.3867515
-0.54898638 0.48896053 1.3862336
-0.54674083 0.48918915 1.3868817
-0.5444932 0.489418 1.3875306
-0.58280069 0.48504058 1.3893334
-0.57991135 0.48472074 1.3884172
-0.57734454 0.48466882 1.3882686
-0.57483459 0.48466447 1.3882561
-0.57237709 0.48470446 1.3883706
-0.56998253 0.48479831 1.3886395
-0.56759363 0.48489788 1.3889247
-0.56547892 0.48523358 1.3898863
-0.54029775 0.48513973 1.3896174
-0.5374558 0.48483777 1.3887525
-0.53483707 0.48473522 1.3884587
-0.53225189 0.48466229 1.3882499
-0.5297516 0.48466632 1.3882614
-0.52725488 0.48467371 1.3882825
-0.52497339 0.48487997 1.3888733
-0.52276933 0.48516005 1.3896756
-0.58042872 0.48766044 1.3896559
-0.52733862 0.48725587 1.3885031
-0.56486982 0.48972085 1.3883891
-0.54224342 0.48964709 1.38818
-0.53999156 0.48987633 1.3888299
-0.56770986 0.49001005 1.389209
-0.53773761 0.49010584 1.3894806
-0.5528785 0.49270126 1.3897302
-0.58886147 0.48339376 1.3918091
-0.58623606 0.48329955 1.3915379
-0.58388698 0.48343334 1.3919231
-0.52095467 0.48329529 1.3915256
-0.51849908 0.48334658 1.3916733
-0.58588928 0.48552278 1.3907146
-0.52062362 0.48549721 1.3906413
-0.51858336 0.48593646 1.3918996
-0.52545202 0.48783016 1.3901396
-0.52360857 0.4884502 1.3919065
-0.5762499 0.49087957 1.3916742
-0.57339984 0.49058938 1.3908515
-0.57055318 0.49029955 1.3900298
-0.53548151 0.49033555 1.3901318
-0.53322333 0.49056545 1.3907837
-0.53096306 0.49079564 1.3914362
-0.55860037 0.49332571 1.3914915
-0.55568528 0.49296686 1.3904793
-0.55067366 0.49297208 1.3904941
-0.54846632 0.49324316 1.3912587
-0.59178656 0.4837321 1.3927833
-0.52401233 0.48380032 1.3929797
-0.51618332 0.48352939 1.3921996
-0.51398444 0.48382396 1.3930478
-0.58957428 0.48649308 1.3934939
-0.51670158 0.4865292 1.3935974
-0.58461684 0.48906657 1.3936629
-0.52176046 0.48907185 1.3936779
-0.52870059 0.49102598 1.3920892
-0.56151968 0.49368513 1.3925053
-0.5462566 0.49351457 1.3920243
-0.54404444 0.49378628 1.3927907
-0.5644421 0.49404398 1.3935175
-0.54182982 0.49405831 1.3935579
-0.59517288 0.48192647 1.3948303
-0.51212192 0.48192307 1.3948205
-0.59785557 0.48206037 1.3952179
-0.59278131 0.48202813 1.3951246
-0.51500463 0.48226595 1.3958129
-0.50970954 0.48202163 1.3951057
-0.50735873 0.48217961 1.395563
-0.59494132 0.48425457 1.3942876
-0.58224547 0.48415661 1.3940055
-0.51183826 0.48417133 1.394048
-0.50978518 0.48461059 1.3953127
-0.51484245 0.48714921 1.3953733
-0.51990807 0.48969549 1.3954551
-0.57996559 0.49190143 1.3945712
-0.52691263 0.4917013 1.3940039
-0.57035404 0.49481046 1.3956795
-0.56736815 0.49440286 1.3945298
-0.53961277 0.49433059 1.394326
-0.53739327 0.49460319 1.3950949
-0.60081714 0.48241711 1.3962504
-0.5908336 0.4824931 1.3964703
-0.50515956 0.48248404 1.3964441
-0.50318807 0.48301014 1.3979667
-0.59877104 0.4853197 1.3973544
-0.50790739 0.48522168 1.3970722
-0.59380192 0.48790094 1.3975265
-0.51297861 0.48777083 1.3971539
-0.51815325 0.49041757 1.3975128
-0.52517009 0.49242568 1.3960575
-0.57343674 0.49529809 1.3970549
-0.53523791 0.49493766 1.3960383
-0.53308421 0.49527684 1.3969949
-0.5309276 0.4956165 1.397953
-0.55315655 0.49771488 1.3967636
-0.55102044 0.49806195 1.3977376
-0.60430557 0.48066893 1.3984935
-0.60165709 0.48056889 1.3982024
-0.59970391 0.48102567 1.3995314
-0.50599605 0.48075932 1.3987565
-0.50334662 0.48063928 1.3984072
-0.50106478 0.48087072 1.3990806
-0.50603241 0.4858416 1.3988571
-0.51112193 0.48840538 1.3989714
-0.58925492 0.49083549 1.3987037
-0.51639336 0.49114183 1.3995767
-0.52342242 0.49315217 1.3981172
-0.57653117 0.49579155 1.3984468
-0.52898955 0.49616444 1.3994986
-0.55632615 0.49829665 1.3983963
-0.54903591 0.49854982 1.3991067
-0.60810888 0.47915438 1.4014436
-0.60573268 0.47927493 1.4017962
-0.49946812 0.47923651 1.4016838
-0.60819989 0.48175502 1.4016534
-0.49908349 0.48139444 1.4006044
-0.5016194 0.48393002 1.4006292
-0.50436479 0.48666778 1.4012358
-0.50934976 0.4891274 1.4010396
-0.51462823 0.49186826 1.4016467
-0.52181363 0.49401724 1.4005697
-0.5598129 0.49915594 1.4008077
-0.54704678 0.49903807 1.4004769
-0.54505378 0.49952725 1.4018497
-0.61151576 0.47984365 1.4034595
-0.49706316 0.47935608 1.4020336
-0.4950065 0.4798145 1.4033743
-0.49740258 0.48221472 1.4029909
-0.50014997 0.48495555 1.4035974
-0.59860778 0.48977 1.4028802
-0.50757223 0.48985153 1.4031137
-0.58582193 0.49472219 1.4025682
-0.52022207 0.49490711 1.4030925
-0.52755618 0.49719322 1.4024004
-0.54315573 0.50010842 1.4034806
-0.61206508 0.47774023 1.4047202
-0.6098609 0.47799909 1.4054813
-0.49557137 0.47782713 1.4049758
-0.49315894 0.4779458 1.4053247
-0.61515707 0.47817364 1.4059947
-0.60426539 0.48011863 1.4042639
-0.49317202 0.48049408 1.405362
-0.49592096 0.48323756 1.4059669
-0.50302964 0.48782471 1.4045669
-0.51301986 0.4927524 1.4041662
-0.52631462 0.49841362 1.4058427
-0.56404918 0.50067288 1.4050648
-0.49094501 0.47825909 1.4062458
-0.49874789 0.48605707 1.4067855
-0.50608277 0.49086222 1.4060087
-0.5114094 0.49364331 1.406705
-0.51880622 0.49597365 1.4061162
-0.54169017 0.50109512 1.4062498
-0.61890459 0.47656927 1.4087507
-0.6160863 0.4763554 1.4081185
-0.6141119 0.47679493 1.4094177
-0.49206343 0.47680566 1.4094495
-0.48923633 0.47652888 1.4086313
-0.48686463 0.47669512 1.4091227
-0.48902112 0.47885963 1.4080117
-0.49167845 0.48151454 1.4083467
-0.60124469 0.4843007 1.40906
-0.49445045 0.48428181 1.409005
-0.50173408 0.48903197 1.4080429
-0.51001233 0.49475011 1.4098589
-0.51754439 0.49719864 1.4095892
-0.62018627 0.4750092 1.4116679
-0.48529589 0.47510594 1.4119555
-0.48486361 0.47722796 1.4106978
-0.60962212 0.47980696 1.4107971
-0.48742196 0.47978613 1.4107358
-0.49017894 0.4825398 1.4113454
-0.49744081 0.48726299 1.4102757
-0.50508332 0.49236083 1.4103013
-0.6228897 0.47512856 1.4120227
-0.61857074 0.47572556 1.4137969
-0.48294255 0.47529703 1.4125234
-0.48591045 0.480809 1.4137435
-0.49313328 0.48548779 1.4125139
-0.50069994 0.49050757 1.4122915
-0.62410575 0.47350356 1.4147793
-0.48411936 0.4739005 1.4159653
-0.48138112 0.47371987 1.4154257
-0.48125315 0.47614703 1.4150494
-0.48347604 0.47837338 1.4140837
-0.60654318 0.48395759 1.4154922
-0.48880947 0.48370442 1.4147516
-0.49630329 0.48864821 1.4142849
-0.62210649 0.47392505 1.4160388
-0.4793058 0.47419322 1.41684
-0.61518544 0.47961444 1.4177523
-0.49189228 0.48678172 1.4162785
-0.50001317 0.49234036 1.4175686
-0.50459111 0.49437153 1.4160607
-0.50970715 0.49693254 1.4160781
-0.62839562 0.4722566 1.4187015
-0.62580568 0.47223374 1.4186329
-0.4799419 0.47226283 1.4187202
-0.47750354 0.47238287 1.4190809
-0.61853248 0.47766587 1.4195633
-0.48023495 0.47767371 1.4195865
-0.48252794 0.4799681 1.4187977
-0.48500144 0.48244208 1.4185452
-0.48747402 0.48491511 1.4182928
-0.60283589 0.48764431 1.4187882
-0.49542063 0.49030003 1.4190657
-0.62969792 0.47067034 1.4216417
-0.62428766 0.47302291 1.4210036
-0.47576147 0.47319672 1.4215257
-0.62138462 0.47532722 1.4202282
-0.47794133 0.47537863 1.4203819
-0.61182368 0.48355877 1.4218287
-0.49084556 0.48828238 1.4206446
-0.59869993 0.49101084 1.421123
-0.62771839 0.47110972 1.4229687
-0.47599494 0.47086293 1.4222233
-0.47383112 0.47126293 1.4234315
-0.63395369 0.46935719 1.4254434
-0.63142943 0.46939254 1.4255508
-0.47453633 0.46939233 1.4255501
-0.47202808 0.46945572 1.4257426
-0.474664 0.474664 1.4259336
-0.6213274 0.47725147 1.4259777
-0.47696823 0.47696823 1.4251314
-0.61840177 0.47955063 1.4251646
-0.47942349 0.47942349 1.4247867
-0.61547571 0.48184428 1.4243437
-0.48190555 0.48190555 1.4245249
-0.48465011 0.48465011 1.4250376
-0.60788715 0.48708081 1.4246271
-0.62707549 0.47255996 1.4273492
-0.47235709 0.47235709 1.4267365
-0.62420559 0.47491106 1.4266758
-0.48774141 0.48774141 1.4265592
-0.60360169 0.49034595 1.4266485
-0.49565101 0.49307621 1.4271008
-0.63534462 0.46780956 1.428571
-0.47055671 0.4679783 1.4290863
-0.63339025 0.46827018 1.4299777
-0.62997615 0.4702276 1.4280869
-0.47021401 0.47021401 1.4280456
-0.61512589 0.48358953 1.4295027
-0.61207306 0.48579273 1.4283973
-0.59907216 0.49342936 1.4281229
-0.46835992 0.46835992 1.4302517
-0.47136074 0.47394353 1.4315282
-0.47379491 0.47637689 1.4310793
-0.62112993 0.4790836 1.4314519
-0.47628787 0.47886938 1.4308119
-0.61812568 0.48133793 1.4304762
-0.47898605 0.48156819 1.4311604
-0.60842699 0.48958349 1.431947
-0.63695633 0.46641222 1.4321948
-0.63514662 0.46698153 1.4339429
-0.46909967 0.46651509 1.4325107
-0.46687073 0.46687073 1.4336027
-0.4692865 0.47187212 1.4330813
-0.62993228 0.47212583 1.4338518
-0.62703037 0.47447452 1.4331321
-0.62408382 0.47678456 1.4323039
-0.48195162 0.48453581 1.4323
-0.61154377 0.48742497 1.4331967
-0.63850838 0.46495846 1.4356847
-0.46764645 0.46505561 1.4359847
-0.63264 0.46962848 1.4341255
-0.61772406 0.48304206 1.4355407
-0.61465186 0.48525146 1.4344155
-0.63670295 0.4655323 1.4374566
-0.46537456 0.46537456 1.4369695
-0.634193 0.46818748 1.437646
-0.46772298 0.47031423 1.4362197
-0.62381852 0.47856346 1.4376479
-0.62079495 0.48082447 1.4366535
-0.61090839 0.48898613 1.4377871
-0.60773122 0.49110901 1.4364089
-0.64006865 0.463498 1.4391929
-0.46618614 0.46358901 1.4394755
-0.46615261 0.46874955 1.4393719
-0.631841 0.47096154 1.4381964
-0.62944734 0.47370777 1.4386562
-0.62684107 0.47629538 1.4386319
-0.47353524 0.47872466 1.4381322
-0.47611302 0.48130226 1.438081
-0.61407256 0.486844 1.439123
-0.46388125 0.46388125 1.440383
-0.63826698 0.46407601 1.4409877
-0.63575363 0.46673939 1.4411838
-0.63339728 0.46952036 1.4417388
-0.47185847 0.47705802 1.4409354
-0.62034023 0.48248684 1.4416205
-0.61720687 0.48466983 1.4403782
-0.64163655 0.46203038 1.4427184
-0.46471873 0.46211526 1.4429834
-0.46240759 0.46240759 1.4438962
-0.46457529 0.46717796 1.442538
-0.63099813 0.47227281 1.4422007
-0.62856072 0.47499928 1.4425786
-0.47017521 0.47538489 1.4437497
-0.62608039 0.47769544 1.4428607
-0.62342805 0.48026085 1.442747
-0.48056215 0.48577148 1.4436522
-0.6398387 0.46261251 1.4445361
-0.63732195 0.46528414 1.444739
-0.46299139 0.46559978 1.4457191
-0.63496202 0.46807262 1.4453006
-0.63255656 0.47083077 1.4457626
-0.61658108 0.48622569 1.445002
-0.64321226 0.46055561 1.4462613
-0.46324414 0.46063432 1.4465084
-0.46092671 0.46092671 1.4474266
-0.63011235 0.47356272 1.4461397
-0.46848536 0.47370523 1.4465749
-0.62762541 0.4762646 1.4464213
-0.62508911 0.4789305 1.4465911
-0.62252426 0.48157534 1.4466959
-0.61977434 0.48407641 1.4463699
-0.6447956 0.45907354 1.4498215
-0.46174437 0.45912823 1.4499942
-0.64141822 0.46114179 1.448102
-0.63889802 0.46382168 1.4483118
-0.46140078 0.46401495 1.4489152
-0.63653463 0.46661779 1.4488801
-0.63412267 0.46938151 1.4493421
-0.63167167 0.47211897 1.4497184
-0.46678883 0.47201896 1.4494112
-0.62917799 0.4748266 1.4499993
-0.64300507 0.45966348 1.4516846
-0.45943859 0.45943859 1.4509743
-0.64048195 0.46235201 1.4519024
-0.62663448 0.47749808 1.4501674
-0.62406391 0.48014981 1.450274
-0.62145817 0.48277488 1.4502994
-0.61879522 0.48535523 1.4501909
-0.64630169 0.45752391 1.4532079
-0.46015468 0.45753273 1.4532359
-0.45980316 0.46242312 1.4521257
-0.63811499 0.46515569 1.4524773
-0.63569647 0.46792501 1.4529392
-0.63323873 0.47066814 1.4533149
-0.46515626 0.47039747 1.4524791
-0.6307382 0.47338149 1.453595
-0.62818938 0.47606003 1.4537659
-0.62561125 0.47871718 1.4538698
-0.62299514 0.48134574 1.4538863
-0.62032485 0.48393208 1.4537758
-0.64430249 0.45796654 1.4546138
-0.45819569 0.45819569 1.4553416
-0.64184278 0.46070921 1.4549872
-0.63963336 0.46363568 1.4559335
-0.46352768 0.46878013 1.4555943
-0.64823377 0.4562619 1.4575522
-0.64555305 0.45622587 1.457437
-0.45878056 0.45615146 1.4571993
-0.64283603 0.45879298 1.4572388
-0.63727808 0.46646127 1.4565541
-0.63481283 0.46920949 1.4569275
-0.63230622 0.47192916 1.4572086
-0.62975228 0.47461498 1.4573827
-0.62716597 0.47727725 1.4574829
-0.62453914 0.47990903 1.4574895
-0.62186414 0.48250347 1.4573832
-0.64388931 0.45691121 1.4596264
-0.46180069 0.45653802 1.4584342
-0.64063275 0.46172914 1.4582082
-0.63839281 0.46464467 1.4591019
-0.63611388 0.46753713 1.4599135
-0.64693308 0.454566 1.4605527
-0.45989665 0.45462564 1.4607443
-0.45756355 0.45492628 1.4617103
-0.64163524 0.45981663 1.4604901
-0.63940626 0.46274558 1.4614183
-0.63379037 0.47040161 1.4606291
-0.63132286 0.47316265 1.4610174
-0.62872559 0.47582796 1.4611074
-0.62609082 0.47846517 1.4611106
-0.64500695 0.45506623 1.46216
-0.64264089 0.45789814 1.4627792
-0.64041805 0.46083692 1.4637308
-0.63713515 0.46564952 1.4622574
-0.63481331 0.46852124 1.4629865
-0.63245934 0.47137365 1.4636474
-0.64848053 0.45301187 1.4640464
-0.64625639 0.45330459 1.4649924
-0.45829961 0.45301661 1.4640617
-0.64364439 0.45596984 1.4650633
-0.4583452 0.4583452 1.4642074
-0.46677405 0.46148482 1.4657887
-0.63814819 0.46374744 1.4645823
-0.63583958 0.46663484 1.4653516
-0.63006794 0.4742021 1.464227
-0.62763494 0.47700256 1.4647142
-0.45656928 0.45392251 1.4669894
-0.6446541 0.4540377 1.4673617
-0.64142483 0.45891631 1.4660318
-0.63916487 0.46183962 1.4669156
-0.63686907 0.4647423 1.4677242
-0.63349319 0.46949914 1.46604
-0.6311143 0.47234342 1.4666586
-0.62868047 0.47515011 1.4671541
-0.62621462 0.47793546 1.4675788
-0.64759696 0.45159623 1.4680313
-0.45976803 0.45181814 1.4687526
-0.45696723 0.45166907 1.468268
-0.64576936 0.45217118 1.4699003
-0.64243472 0.45698965 1.46834
-0.640185 0.45992586 1.4692569
-0.63453048 0.46761853 1.4684405
-0.63215286 0.47047016 1.4690721
-0.62972665 0.47328928 1.4695956
-0.64905024 0.44995508 1.4713258
-0.45797038 0.45000568 1.4714912
-0.64344758 0.45505673 1.470655
-0.64120847 0.45800605 1.4716058
-0.63790196 0.46284363 1.4701046
-0.63556302 0.46572572 1.47083
-0.63319033 0.4685874 1.4714831
-0.62726885 0.47608778 1.4700495
-0.64697617 0.4503592 1.4726472
-0.45577097 0.45045584 1.4729632
-0.64446288 0.45311722 1.4729756
-0.46346447 0.45549661 1.4720765
-0.6422233 0.45607162 1.4739349
-0.63892514 0.46092936 1.4724627
-0.63659596 0.46382463 1.4732205
-0.63423127 0.46669847 1.4739021
-0.47165167 0.46633729 1.4727614
-0.63077629 0.47142226 1.4720451
-0.62832665 0.47423387 1.4725286
-0.64821261 0.44855779 1.4754615
-0.45654523 0.44855902 1.4754655
-0.64547032 0.4511638 1.4752781
-0.63994819 0.45900649 1.4748203
-0.63763231 0.46191737 1.4756188
-0.63182938 0.46954897 1.4745027
-0.62938643 0.47237247 1.4750122
-0.64627051 0.44905806 1.477107
-0.45951751 0.44886205 1.4764622
-0.64397371 0.45198154 1.4779521
-0.64323992 0.45413002 1.4762681
-0.6409744 0.45707738 1.4771854
-0.63527548 0.46480322 1.4763287
-0.63288373 0.46766776 1.4769633
-0.63043892 0.47049668 1.4774787
-0.47557142 0.47024289 1.4766817
-0.62796003 0.4733032 1.4779184
-0.64964777 0.44688293 1.4787282
-0.64726293 0.44707853 1.4793754
-0.45754784 0.44687617 1.4787058
-0.64466196 0.44979522 1.4795318
-0.46292585 0.45225319 1.4788405
-0.64175266 0.45496395 1.4789789
-0.63949597 0.45792717 1.4799317
-0.63867205 0.46000388 1.478025
-0.46856642 0.46055672 1.4798013
-0.63632071 0.46289998 1.4787579
-0.633928 0.46577024 1.4794003
-0.63149488 0.46861461 1.4799535
-0.64541328 0.44764689 1.481256
-0.46101007 0.44764745 1.4812579
-0.6424458 0.45278403 1.4805763
-0.64020073 0.45575878 1.4815627
-0.63719803 0.46086648 1.4807966
-0.63486838 0.46378809 1.4815949
-0.62902498 0.47143483 1.4804248
-0.64859694 0.44532534 1.4824244
-0.64635563 0.44562408 1.4834188
-0.45875147 0.44537681 1.4825957
-0.64383221 0.44840705 1.4837714
-0.64313906 0.45059848 1.482174
-0.64090753 0.45358589 1.4831983
-0.46674129 0.45604238 1.4824846
-0.63792157 0.45871511 1.4824781
-0.63560492 0.46164986 1.4833137
-0.47208896 0.46406478 1.4824789
-0.63250661 0.4666909 1.4823245
-0.63009357 0.46956021 1.4829398
-0.64455014 0.44622701 1.4854259
-0.45683569 0.44611812 1.4850634
-0.64160562 0.45140105 1.4848139
-0.46482 0.4514246 1.4848914
-0.63934946 0.45438042 1.4857963
-0.63864362 0.45655653 1.484156
-0.63633305 0.45949942 1.4850129
-0.47038481 0.45966378 1.4855441
-0.63399202 0.46242547 1.4858057
-0.63325608 0.46456629 1.4840809
-0.63086534 0.46745646 1.4847561
-0.47546726 0.46743122 1.4846759
-0.62843996 0.47032502 1.4853553
-0.64753956 0.44375899 1.486136
-0.46003357 0.44393909 1.4867392
-0.64544618 0.44416362 1.487491
-0.45761457 0.44419479 1.4875954
-0.46278027 0.44668359 1.4869457
-0.64229965 0.44920748 1.48642
-0.64005756 0.45219997 1.4874419
-0.63705766 0.45734033 1.486704
-0.63472962 0.46027961 1.4875343
-0.63161737 0.46533167 1.486526
-0.62920725 0.46821606 1.4871688
-0.64368111 0.44479841 1.489617
-0.6429956 0.44700944 1.4880306
-0.64076114 0.45001042 1.489077
-0.63778394 0.45517632 1.4883989
-0.46860346 0.45517644 1.4883993
-0.63546294 0.45812446 1.4892529
-0.63237113 0.46320179 1.4883001
-0.47388226 0.46314272 1.4881103
-0.62996954 0.46609688 1.4889705
-0.62753159 0.46896899 1.4895602
-0.64657962 0.44225508 1.490103
-0.64453387 0.44269654 1.4915905
-0.46139616 0.44256365 1.4911427
-0.45837209 0.4422417 1.4900579
-0.64145583 0.4478088 1.4906914
-0.63920265 0.45080611 1.4917098
-0.46670559 0.4505659 1.4909151
-0.63849324 0.45299417 1.4900542
-0.63618875 0.45595768 1.4909539
-0.63384932 0.45890149 1.491779
-0.47219142 0.45873868 1.4912497
-0.6331104 0.46105492 1.4900399
-0.630723 0.46396467 1.4907513
-0.62829995 0.46685243 1.4913841
-0.4772191 0.46646485 1.490146
-0.45945168 0.44058856 1.4935675
-0.64284313 0.44338655 1.4939153
-0.64215237 0.4456026 1.4923102
-0.46471027 0.44585246 1.4931469
-0.63991177 0.44861183 1.4933646
-0.63691616 0.45378593 1.4926586
-0.63458794 0.45674163 1.4935174
-0.63147789 0.4618271 1.4925355
-0.47564068 0.46216646 1.4936322
-0.62906832 0.46472928 1.4932081
-0.64561659 0.44074452 1.4940962
-0.64364016 0.4412376 1.4957676
-0.46287179 0.4412801 1.4959117
-0.64060754 0.44640231 1.4949883
-0.63763213 0.45159993 1.4943366
-0.63531482 0.45456707 1.4952281
-0.47043151 0.45425624 1.4942056
-0.63222337 0.45967627 1.4942975
-0.62982303 0.4625895 1.4949994
-0.62738758 0.4654811 1.4956237
-0.47895557 0.46546385 1.4955683
-0.46066302 0.43904832 1.4975052
-0.64130485 0.444188 1.4966156
-0.63905531 0.44720364 1.497672
-0.63834298 0.44940424 1.4960024
-0.46858403 0.44967863 1.4969158
-0.63604331 0.45238748 1.4969426
-0.63370544 0.45534912 1.4978005
-0.6329636 0.45751527 1.4960471
-0.47399598 0.457791 1.4969487
-0.63057947 0.46044457 1.4967951
-0.62815881 0.46335158 1.4974623
-0.64460373 0.43919542 1.4980069
-0.64251304 0.43961418 1.4994352
-0.46399397 0.43964443 1.4995384
-0.6419251 0.44191474 1.4980631
-0.63964176 0.44490939 1.4990463
-0.46643013 0.44479859 1.498673
-0.63733333 0.44789246 1.4999788
-0.63676631 0.45019785 1.4986442
-0.63443583 0.45316842 1.4995267
-0.47224024 0.45329651 1.4999505
-0.63133126 0.45828971 1.4985795
-0.62891775 0.46120638 1.4992715
-0.47741219 0.46118289 1.4991952
-0.62647045 0.46410227 1.4998884
-0.64343172 0.43753359 1.5015792
-0.46179476 0.43741849 1.5011842
-0.6406309 0.44017982 1.5013645
-0.6401391 0.4425486 1.5002118
-0.46730259 0.44292161 1.5014763
-0.63784707 0.44554499 1.5011878
-0.46982431 0.44816095 1.500878
-0.6349954 0.45086026 1.5008494
-0.63262534 0.45381048 1.5016513
-0.63207257 0.45612091 1.5003392
-0.47548577 0.45652053 1.5016537
-0.62966454 0.45904574 1.5010517
-0.62722051 0.4619486 1.5016843
-0.64127666 0.43791199 1.5028778
-0.46499622 0.43788272 1.5027775
-0.63884121 0.44081399 1.5035275
-0.63834369 0.44318131 1.5023566
-0.63603258 0.44617209 1.5033008
-0.47071505 0.44629756 1.5037235
-0.63551956 0.44852236 1.5020883
-0.63316035 0.45148265 1.5029212
-0.47314849 0.45145687 1.5028354
-0.63077188 0.45442703 1.5036914
-0.63022542 0.45674402 1.5023888
-0.62779105 0.45965692 1.5030502
-0.47866449 0.45968062 1.5031277
-0.625328 0.46255282 1.5036485
-0.64225411 0.43586379 1.5051686
-0.46294215 0.43579012 1.5049142
-0.63933545 0.43844023 1.5046908
-0.6370399 0.44144556 1.5056816
-0.46817809 0.44103733 1.5042893
-0.63654321 0.44381583 1.5045077
-0.63421291 0.44680095 1.5054196
-0.6336928 0.44914845 1.5041851
-0.47406027 0.44961014 1.5057313
-0.6313203 0.45210677 1.5049988
-0.62891328 0.45504525 1.5057371
-0.47640961 0.45469293 1.5045713
-0.62835604 0.45735636 1.504403
-0.62590897 0.46026713 1.5050455
-0.48178464 0.46278471 1.5044023
-0.64004409 0.43620837 1.5063585
-0.4660255 0.43613464 1.5061039
-0.63753766 0.43907177 1.5068581
-0.46905601 0.43914521 1.5071101
-0.63523346 0.44207895 1.5078421
-0.63472605 0.44444412 1.5066376
-0.47160956 0.44442746 1.5065811
-0.6323837 0.44742846 1.5075339
-0.63185221 0.44977006 1.5062668
-0.6294598 0.45272166 1.5070456
-0.47733706 0.45285824 1.5075003
-0.62704134 0.45565912 1.5077684
-0.62647659 0.45796663 1.5064104
-0.47960976 0.45787108 1.5060961
-0.62401056 0.46087056 1.5070187
-0.48274449 0.460987 1.5073994
-0.64125466 0.43431047 1.5092076
-0.63880777 0.43449825 1.5098602
-0.46709892 0.43441561 1.509573
-0.63805705 0.43670857 1.5080858
-0.46992707 0.43723649 1.5099089
-0.63573033 0.43970215 1.5090215
-0.63341373 0.44270852 1.5099894
-0.47250807 0.44255078 1.5094514
-0.63290048 0.44507194 1.5087658
-0.47497538 0.44775617 1.508638
-0.63053793 0.4480496 1.5096267
-0.63000613 0.45039317 1.5083536
-0.62759525 0.45333889 1.5091003
-0.62515628 0.45626876 1.5097857
-0.48055843 0.45605403 1.5090752
-0.62459153 0.45857808 1.5084217
-0.63677287 0.43496907 1.5114962
-0.46466848 0.43468988 1.5105261
-0.63622671 0.43732074 1.5101998
-0.63391793 0.44033441 1.5111914
-0.63106877 0.44570085 1.5108978
-0.47589397 0.44589493 1.5115557
-0.62868619 0.44867194 1.5117235
-0.62814295 0.45100936 1.5104172
-0.47826996 0.45101812 1.5104465
-0.62572068 0.45395422 1.5111487
-0.62326586 0.45687979 1.5118076
-0.62268716 0.45918068 1.5104039
-0.48370922 0.45918313 1.5104119
-0.63758361 0.43279231 1.5134206
-0.46819469 0.43270472 1.5131143
-0.63490897 0.43556121 1.5135539
-0.47081429 0.43533263 1.5127596
-0.63441509 0.43795106 1.5123765
-0.63209558 0.44096515 1.5133561
-0.4734062 0.44066343 1.5123205
-0.6315822 0.44333521 1.5121269
-0.62921703 0.44632095 1.5129999
-0.62682021 0.44928941 1.5138041
-0.47920683 0.44917107 1.5134053
-0.62627143 0.4516249 1.5124787
-0.62382972 0.45456302 1.5131752
-0.48150808 0.45422718 1.5120573
-0.62135774 0.4574832 1.5138042
-0.4846794 0.45737353 1.5134413
-0.63548297 0.43322173 1.5149223
-0.47172818 0.43344298 1.5156959
-0.63309395 0.43619215 1.5157464
-0.63259667 0.43858215 1.5145558
-0.47429955 0.43876126 1.5151744
-0.63025802 0.44159079 1.5155032
-0.62974548 0.44396374 1.5142707
-0.47681439 0.44402486 1.5144792
-0.62736005 0.44694278 1.5151079
-0.6249426 0.44990399 1.5158747
-0.62439412 0.45224169 1.5145442
-0.48246145 0.45239303 1.5150511
-0.62193358 0.45517337 1.5152071
-0.63638234 0.43109772 1.5170662
-0.46932161 0.43100965 1.5167563
-0.63358498 0.4337936 1.516922
-0.63126957 0.43682212 1.5179355
-0.63077152 0.43921399 1.5167378
-0.62841535 0.44221821 1.5176564
-0.477727 0.44213703 1.5173779
-0.62789017 0.44458452 1.5163881
-0.6254915 0.44756174 1.5172061
-0.48014674 0.44731617 1.5163736
-0.62305993 0.45052025 1.5179511
-0.62249714 0.45284954 1.51658
-0.6200223 0.455778 1.5172198
-0.48565349 0.45555666 1.5164829
-0.63418323 0.43146375 1.5183543
-0.63204718 0.43187606 1.5198053
-0.47262627 0.43152833 1.5185816
-0.6316632 0.4343541 1.518882
-0.47571948 0.434591 1.5197104
-0.62925649 0.43732637 1.5196878
-0.47519547 0.43685114 1.5180364
-0.6288743 0.43980098 1.5187649
-0.47838944 0.44000861 1.5194819
-0.62643129 0.44275123 1.5194857
-0.62602723 0.44520536 1.5185056
-0.48097628 0.44534841 1.5189935
-0.62354118 0.44812742 1.5191237
-0.62103027 0.45103526 1.5196863
-0.48341721 0.45055032 1.5180525
-0.62059158 0.45345652 1.5186127
-0.48651049 0.45361963 1.519159
-0.61803937 0.45633504 1.5190741
-0.63521492 0.42942175 1.5208244
-0.63268417 0.42956647 1.5213369
-0.47345272 0.42953825 1.521237
-0.47045752 0.42930964 1.5204273
-0.62999094 0.43234673 1.5214616
-0.47621864 0.43230221 1.521305
-0.62962526 0.43483922 1.5205784
-0.62720859 0.43781081 1.5213711
-0.4789187 0.43775091 1.521163
-0.62682313 0.44028497 1.5204362
-0.62436569 0.44323102 1.5211323
-0.4815295 0.44311687 1.5207406
-0.62396294 0.4456878 1.5201511
-0.62188298 0.44616327 1.5217729
-0.48463321 0.44619206 1.521871
-0.62146121 0.44860443 1.5207407
-0.48405758 0.44840461 1.5200634
-0.61893684 0.45150825 1.5212801
-0.48710611 0.45143074 1.5210189
-0.61849535 0.45392895 1.5201949
-0.61638689 0.45439658 1.5217609
-0.49011701 0.45442221 1.5218468
-0.63043749 0.42990619 1.5225401
-0.47678435 0.43006772 1.5231122
-0.62795097 0.43283275 1.5231719
-0.62758261 0.43532538 1.5222784
-0.62553549 0.43581262 1.5239823
-0.47943562 0.43547592 1.5228049
-0.62515205 0.43829343 1.5230482
-0.62476742 0.44076997 1.5221111
-0.62269789 0.44124949 1.523767
-0.4820832 0.44087949 1.5224893
-0.62229556 0.44371185 1.5227824
-0.48520601 0.44397038 1.5236697
-0.61979759 0.44663906 1.5233957
-0.61937517 0.4490813 1.5223573
-0.61727631 0.44955313 1.5239568
-0.4877032 0.44923645 1.5228833
-0.61683828 0.45198172 1.5228753
-0.4907389 0.45224959 1.5237778
-0.63132679 0.42776173 1.5246878
-0.62892389 0.42799851 1.5255318
-0.477543 0.42799962 1.5255357
-0.47445568 0.42769772 1.5244596
-0.62831795 0.43033594 1.524062
-0.62626928 0.4308182 1.5257701
-0.62590307 0.43331751 1.5248779
-0.47994745 0.43319038 1.5244305
-0.62347531 0.43629506 1.5256693
-0.48315427 0.436353 1.5258719
-0.62309098 0.43877709 1.5247289
-0.48261935 0.43861985 1.5241826
-0.6206224 0.44172901 1.5254229
-0.48576578 0.44173035 1.5254276
-0.62021893 0.44419229 1.5244313
-0.6177085 0.44711637 1.5250237
-0.48829228 0.44702813 1.5247227
-0.61517251 0.4500255 1.5255581
-0.49134484 0.45005536 1.5256593
-0.61472863 0.45245129 1.5244575
-0.62669635 0.4283573 1.5268105
-0.48098066 0.42861027 1.5277122
-0.62421763 0.4313027 1.5274858
-0.48046148 0.43090099 1.5260632
-0.62385052 0.43380335 1.5265876
-0.48368379 0.43407521 1.5275443
-0.62140876 0.43677735 1.5273558
-0.62102407 0.43926093 1.5264102
-0.48632556 0.43948403 1.5271854
-0.61854237 0.44220957 1.5270824
-0.61812812 0.44466677 1.5260597
-0.61603343 0.44514272 1.5276932
-0.48887506 0.44480747 1.5265425
-0.61560988 0.44759107 1.5266428
-0.49194965 0.44785333 1.5275372
-0.61306286 0.4504979 1.5271595
-0.6126104 0.45291871 1.5260323
-0.49435824 0.45304695 1.5264645
-0.62747687 0.42613265 1.5287122
-0.62514287 0.42642197 1.52975
-0.48168707 0.42647937 1.529956
-0.47849351 0.42609364 1.5285722
-0.62458009 0.42879558 1.5283728
-0.62215984 0.43178719 1.5292017
-0.48420227 0.4317815 1.5291816
-0.62179279 0.43428987 1.5282997
-0.61972082 0.43477073 1.5299919
-0.61933774 0.43726072 1.5290461
-0.48687553 0.43722251 1.5289124
-0.61894321 0.43973917 1.5280721
-0.61685789 0.44021848 1.5297377
-0.61645287 0.4426876 1.5287333
-0.48945886 0.44258112 1.5283655
-0.61393481 0.44562009 1.5293314
-0.49255246 0.44564271 1.5294091
-0.61350083 0.44806239 1.5282503
-0.61138576 0.44853356 1.5298574
-0.61094075 0.45096532 1.528744
-0.49498695 0.45086554 1.5284058
-0.62293458 0.42679995 1.531106
-0.62252635 0.42928091 1.5301026
-0.62046307 0.42976394 1.5318244
-0.48472303 0.42948395 1.5308263
-0.62009728 0.43227273 1.5309213
-0.61764425 0.43525267 1.5316879
-0.48741606 0.43494633 1.5306098
-0.61725819 0.43774241 1.5307305
-0.49059421 0.43807989 1.5319107
-0.61476791 0.4406988 1.5314068
-0.49002811 0.44033512 1.530143
-0.61435252 0.44316217 1.530372
-0.49314228 0.44341365 1.5312405
-0.6118232 0.44609234 1.5309521
-0.60926521 0.44900498 1.5314653
-0.49560797 0.44867018 1.5303234
-0.60881335 0.451433 1.5303295
-0.62364376 0.42452028 1.5328492
-0.62134087 0.42483661 1.5339915
-0.48258021 0.42450467 1.5327928
-0.62082624 0.42725015 1.532721
-0.48523831 0.42717561 1.5324537
-0.61839521 0.43024811 1.53355
-0.48848367 0.43036377 1.5339624
-0.61802703 0.4327572 1.5326371
-0.487957 0.43266442 1.5323086
-0.61556315 0.4357357 1.5333877
-0.49115816 0.43581638 1.5336716
-0.61516738 0.43822035 1.5324018
-0.61266571 0.44117466 1.5330603
-0.49373356 0.44117928 1.5330764
-0.61224842 0.44363824 1.532016
-0.61013961 0.44411525 1.5336633
-0.60970265 0.44656226 1.5325649
-0.60750562 0.44698024 1.5339993
-0.49622041 0.44646013 1.5322144
-0.60713214 0.44947141 1.5330563
-0.49926263 0.44947466 1.5330673
-0.61915225 0.42523432 1.5354275
-0.48586714 0.42496073 1.5344396
-0.61876053 0.42773378 1.534456
-0.61660969 0.42816266 1.5359946
-0.48899248 0.42804158 1.5355603
-0.61632258 0.43073332 1.5352795
-0.61594504 0.43323776 1.5343391
-0.61375129 0.43364367 1.5357766
-0.49166346 0.43349484 1.5352495
-0.61344361 0.43619579 1.5350068
-0.49464965 0.43645558 1.535921
-0.61307198 0.43869936 1.5340768
-0.61083943 0.43908414 1.5354223
-0.49427104 0.43889052 1.5347453
-0.61050373 0.44161156 1.5345786
-0.60820985 0.44195658 1.5357774
-0.49721041 0.44181091 1.5352713
-0.60786366 0.44447437 1.5349034
-0.50012738 0.44471157 1.5357226
-0.49680606 0.44421935 1.5340228
-0.60520244 0.44732353 1.5351775
-0.49970362 0.44710323 1.5344214
-0.60482937 0.4498159 1.5342312
-0.50257754 0.4499661 1.5347435
-0.62257898 0.42291 1.5370482
-0.61977375 0.42288813 1.5369687
-0.61734754 0.42312586 1.5378327
-0.48666972 0.42288965 1.5369742
-0.48367372 0.4226948 1.5362661
-0.61689258 0.42558658 1.5366994
-0.61462468 0.42593631 1.5379622
-0.48932338 0.42555887 1.5365993
-0.61434048 0.4285129 1.537251
-0.49235961 0.42856091 1.5374233
-0.61405361 0.43108502 1.5365331
-0.61177427 0.43143266 1.5377722
-0.492019 0.43103635 1.5363597
-0.6114729 0.43399322 1.5370146
-0.4950223 0.43401113 1.537078
-0.61115891 0.43654206 1.5362253
-0.60887051 0.43688887 1.5374458
-0.49799907 0.43696296 1.5377065
-0.60854727 0.43942937 1.5366296
-0.60624874 0.43977311 1.5378317
-0.49761254 0.43939602 1.536513
-0.60591215 0.44230199 1.5369778
-0.50054771 0.44231224 1.5370134
-0.60555875 0.44481549 1.5360814
-0.60325027 0.44515711 1.5372611
-0.50345612 0.44520497 1.5374265
-0.60288906 0.44766247 1.5363407
-0.50302327 0.44759372 1.5361048
-0.60057223 0.44800192 1.5375056
-0.50634414 0.44807988 1.5377733
-0.61495829 0.42339113 1.5387969
-0.61263436 0.42370403 1.539934
-0.49304327 0.42360058 1.5395581
-0.48979416 0.42319328 1.5380777
-0.6123513 0.42628539 1.5392226
-0.49269912 0.42608064 1.5384834
-0.61206758 0.42886367 1.5385094
-0.60979092 0.42921504 1.5397699
-0.49573505 0.42908159 1.5392911
-0.60949141 0.4317809 1.5390135
-0.49538073 0.43155015 1.538191
-0.60918945 0.43434235 1.538251
-0.60689646 0.43468785 1.5394746
-0.49838126 0.43452182 1.5388867
-0.60657853 0.43723625 1.5386682
-0.60428244 0.43758383 1.5398914
-0.50135636 0.43747163 1.5394965
-0.50095296 0.439895 1.5382578
-0.60394657 0.44011742 1.5390356
-0.60360658 0.4426448 1.538169
-0.60129344 0.44298524 1.5393521
-0.50388378 0.44280693 1.5387324
-0.60093945 0.44550014 1.5384457
-0.59862196 0.4458414 1.5396242
-0.50679415 0.44570115 1.5391399
-0.59825116 0.44834134 1.5386705
-0.61582774 0.42120948 1.5409725
-0.61318123 0.42130139 1.5413088
-0.49363327 0.42132643 1.5414003
-0.49058172 0.42109424 1.5405508
-0.61035383 0.42404991 1.5411912
-0.49641603 0.42410892 1.5414057
-0.6100738 0.42663476 1.5404842
-0.60779262 0.42698476 1.5417479
-0.49607718 0.42659858 1.5403535
-0.60750502 0.42956305 1.5410184
-0.49911225 0.429598 1.5411438
-0.60720479 0.43212971 1.5402567
-0.60491449 0.43247908 1.541502
-0.50212646 0.43257985 1.5418612
-0.49875027 0.43206501 1.5400261
-0.60459977 0.43503386 1.5407001
-0.60229951 0.43538049 1.5419277
-0.50174153 0.43502799 1.5406792
-0.60197568 0.43792689 1.5410986
-0.50471014 0.43797159 1.541256
-0.60164058 0.44046202 1.5402406
-0.59933084 0.44080716 1.5414475
-0.50765491 0.44089484 1.5417541
-0.50430107 0.44039515 1.5400068
-0.59897727 0.44332656 1.5405381
-0.59665829 0.44366899 1.541728
-0.50722361 0.44329953 1.5404441
-0.59629685 0.44618014 1.540794
-0.5939669 0.44651845 1.5419623
-0.51012564 0.44618618 1.5408149
-0.61073625 0.42153323 1.5421569
-0.60838097 0.42182937 1.5432403
-0.49682483 0.42167485 1.542675
-0.60807496 0.42440012 1.542464
-0.60578918 0.42474872 1.543731
-0.49980891 0.42462873 1.5432949
-0.60550767 0.42733532 1.5430137
-0.49946359 0.42711788 1.5422286
-0.6052137 0.42991045 1.5422646
-0.60291868 0.43025836 1.5435127
-0.50249255 0.43011135 1.5429853
-0.60261607 0.43282583 1.542738
-0.6003111 0.43317112 1.5439687
-0.50549847 0.43308547 1.5436634
-0.59999561 0.43572766 1.5431572
-0.50510973 0.43553537 1.5424762
-0.59966516 0.43827039 1.5423074
-0.59735084 0.43861425 1.5435175
-0.5080691 0.43847057 1.5430119
-0.59700996 0.44114721 1.5426366
-0.59468609 0.44148827 1.5438293
-0.51100594 0.44138658 1.5434737
-0.51057255 0.4437947 1.5421648
-0.59433573 0.44401193 1.5429198
-0.51392168 0.44428459 1.5438672
-0.51346225 0.44667041 1.542487
-0.61191589 0.41955963 1.5451355
-0.60904509 0.41950244 1.5449249
-0.60654646 0.41970226 1.5456607
-0.5006631 0.41977602 1.5459324
-0.49753299 0.41948861 1.544874
-0.49457327 0.4193424 1.5443355
-0.60606605 0.42215636 1.5444366
-0.6037789 0.4225058 1.545715
-0.50015068 0.42213276 1.5443503
-0.60349965 0.42509791 1.5450001
-0.50320637 0.42514664 1.5451772
-0.60321778 0.42768559 1.5442785
-0.5028581 0.42763835 1.5441079
-0.60091817 0.42803219 1.54553
-0.50624931 0.42815021 1.5459561
-0.60061991 0.43060687 1.544763
-0.5058797 0.43062487 1.5448276
-0.59800249 0.43351695 1.5452013
-0.50887758 0.4335916 1.5454674
-0.59768438 0.43607277 1.5443794
-0.59536541 0.4364154 1.5455929
-0.50848198 0.4360407 1.5442659
-0.59503281 0.43895864 1.5447295
-0.59266716 0.43927094 1.5458285
-0.51143569 0.43897069 1.5447718
-0.59235883 0.44183001 1.5450243
-0.51433837 0.4418571 1.545119
-0.58985496 0.44204262 1.5457678
-0.59200251 0.44435012 1.5440949
-0.58953685 0.44459161 1.544934
-0.5870263 0.44480142 1.5456631
-0.52017576 0.44486883 1.5458974
-0.51708704 0.44461122 1.5450022
-0.60412949 0.41996068 1.5466125
-0.60177046 0.42026198 1.5477221
-0.50391799 0.42016432 1.5473624
-0.60148638 0.42285472 1.5469915
-0.50355494 0.42265138 1.5462476
-0.60120642 0.4254477 1.5462713
-0.59890938 0.42579803 1.5475446
-0.5066123 0.42566597 1.5470647
-0.59861475 0.42837933 1.5467834
-0.59627247 0.42870176 1.5479476
-0.50964534 0.42866063 1.5477991
-0.59831738 0.43095589 1.546015
-0.59600413 0.4313004 1.547251
-0.51247722 0.43148628 1.5479177
-0.50927001 0.43113542 1.5466591
-0.59569019 0.43386334 1.546436
-0.59324497 0.43411571 1.5473355
-0.51529443 0.43429962 1.547991
-0.51218712 0.43403322 1.5470414
-0.59295839 0.43669641 1.5465881
-0.59045595 0.43690947 1.5473427
-0.51808691 0.43709219 1.5479897
-0.51498252 0.43682799 1.5470541
-0.51185179 0.43653843 1.5460286
-0.59016114 0.43948171 1.5465702
-0.58765274 0.43969265 1.5473125
-0.52086568 0.43987316 1.5479476
-0.51776475 0.43961155 1.5470271
-0.51466745 0.43935025 1.5461075
-0.58734769 0.44225469 1.5465094
-0.5848366 0.44246587 1.5472479
-0.58232015 0.44267502 1.5479792
-0.52362567 0.44263825 1.5478506
-0.5205307 0.44238129 1.5469521
-0.51743352 0.44211972 1.5460374
-0.58451343 0.44501144 1.5463929
-0.60510528 0.41784406 1.5491105
-0.60233754 0.41786292 1.5491805
-0.50455934 0.41790369 1.5493317
-0.50150436 0.41768745 1.54853
-0.5998475 0.41807553 1.5499687
-0.59946263 0.42060199 1.5489743
-0.59699565 0.42083299 1.549825
-0.50729442 0.42064908 1.5491477
-0.59918851 0.42320308 1.5482659
-0.59676242 0.42346373 1.5492195
-0.51016939 0.42351049 1.5493906
-0.50696349 0.42316788 1.5481372
-0.59652525 0.4260895 1.5486039
-0.5940302 0.42630401 1.5493836
-0.51303154 0.42636135 1.549592
-0.50991482 0.42609322 1.5486175
-0.59377831 0.42891753 1.5487267
-0.59128159 0.42913347 1.5495064
-0.51587903 0.42920014 1.5497472
-0.51276022 0.42893022 1.5487726
-0.59351504 0.43152034 1.5480399
-0.59101486 0.43173426 1.5488074
-0.58851224 0.43194842 1.5495757
-0.51558816 0.43175268 1.5488734
-0.51870286 0.43201935 1.5498301
-0.59074402 0.43432954 1.5480976
-0.58823806 0.43454167 1.5488538
-0.58572966 0.43475401 1.5496106
-0.52151096 0.43482548 1.5498654
-0.51840079 0.43456241 1.5489277
-0.58795106 0.43712279 1.5480981
-0.58544374 0.43733624 1.5488541
-0.58293301 0.43754926 1.5496085
-0.52430636 0.43762103 1.5498626
-0.52119613 0.4373576 1.5489297
-0.58514196 0.43990383 1.5480556
-0.58262873 0.44011521 1.5487995
-0.58011311 0.44032681 1.5495441
-0.5270763 0.4403953 1.5497851
-0.52396965 0.4401345 1.5488673
-0.57980126 0.44288433 1.5487112
-0.57728004 0.4430939 1.549444
-0.52982676 0.44315323 1.5496515
-0.52672386 0.44289514 1.548749
-0.59730262 0.41825169 1.5506219
-0.59475964 0.41843089 1.5512862
-0.51380187 0.41860151 1.5519187
-0.51070994 0.41836241 1.5510323
-0.50765252 0.41814905 1.5502414
-0.5945043 0.42104891 1.5506202
-0.59200913 0.42126417 1.5514129
-0.51354688 0.42119238 1.5511485
-0.5104211 0.42092258 1.5501549
-0.59427065 0.42368001 1.5500108
-0.59177631 0.42389652 1.5508028
-0.51329345 0.42378178 1.5503831
-0.58927947 0.42411327 1.5515958
-0.51642138 0.42405334 1.5513766
-0.59153259 0.42651877 1.5501641
-0.58903241 0.4267337 1.5509453
-0.58652973 0.42694888 1.5517273
-0.51927674 0.42689866 1.5515448
-0.5161522 0.42662987 1.5505679
-0.58878082 0.4293485 1.5502828
-0.58627474 0.42956167 1.5510526
-0.5837661 0.42977503 1.551823
-0.52211779 0.42973232 1.5516688
-0.51899719 0.42946669 1.5507096
-0.58600718 0.43216279 1.5503447
-0.58349961 0.4323774 1.5511146
-0.580989 0.4325918 1.5518837
-0.52494311 0.43255314 1.5517451
-0.52182108 0.43228608 1.550787
-0.58321887 0.43496659 1.5503683
-0.58070552 0.43517932 1.5511266
-0.57818979 0.43539232 1.5518857
-0.52774423 0.43535402 1.5517492
-0.52462542 0.43508932 1.5508058
-0.5804162 0.4377597 1.5503538
-0.57789695 0.43797034 1.5510998
-0.52741688 0.43788192 1.5507866
-0.57537532 0.43818119 1.5518465
-0.53052962 0.43814188 1.5517073
-0.57759506 0.44053859 1.5502894
-0.57507426 0.44075033 1.5510346
-0.57250977 0.44093052 1.5516686
-0.56980497 0.44100383 1.5519266
-0.53619146 0.44099298 1.5518885
-0.53329635 0.4409143 1.5516115
-0.53018659 0.44065639 1.550704
-0.57475644 0.44330361 1.5501773
-0.53293347 0.44341183 1.5505557
-0.50841159 0.41597313 1.5525593
-0.59826148 0.41612095 1.5531111
-0.59537876 0.41606468 1.552901
-0.59273976 0.41617897 1.5533276
-0.59013283 0.41631702 1.5538428
-0.51430565 0.41620922 1.5534405
-0.51133019 0.41606867 1.5529159
-0.59224242 0.41862997 1.5520242
-0.58973598 0.41883862 1.5527978
-0.5872401 0.41905674 1.5536065
-0.52006543 0.41913629 1.5539013
-0.51692361 0.41886222 1.5528853
-0.58951139 0.42147967 1.5522065
-0.5870111 0.42169535 1.5530008
-0.5845083 0.42191124 1.5537959
-0.51981038 0.42173296 1.5531393
-0.5166766 0.42146248 1.5521432
-0.58677876 0.42432925 1.552386
-0.58427262 0.42454341 1.5531695
-0.58176398 0.42475778 1.5539538
-0.52268231 0.42459181 1.5533465
-0.51955199 0.42432413 1.5523672
-0.58402461 0.42716426 1.5525101
-0.58151686 0.42737985 1.5532937
-0.52553755 0.42743719 1.5535021
-0.52240521 0.42716777 1.5525229
-0.58125502 0.42998865 1.5525943
-0.52524203 0.42999813 1.5526285
-0.57874143 0.43020245 1.5533663
-0.5283699 0.43026409 1.5535889
-0.57847214 0.4328036 1.5526435
-0.57595283 0.43301564 1.5534042
-0.57335812 0.43317276 1.5539678
-0.53118777 0.43307921 1.5536323
-0.52806318 0.4328157 1.5526869
-0.57567155 0.4356055 1.5526456
-0.57309002 0.4357726 1.5532413
-0.57038552 0.4358474 1.5535078
-0.56767863 0.4359211 1.5537705
-0.53967762 0.43594739 1.5538642
-0.53677678 0.43586832 1.5535824
-0.53387576 0.43578836 1.5532974
-0.53086692 0.43561903 1.5526938
-0.57280248 0.43835494 1.5524619
-0.57009786 0.43842906 1.5527244
-0.56739235 0.43850324 1.5529871
-0.56468594 0.43857744 1.5532498
-0.56197864 0.43865165 1.5535127
-0.55927038 0.43872586 1.5537755
-0.54809046 0.43875274 1.5538707
-0.54518783 0.43867299 1.5535883
-0.54228622 0.43859324 1.5533059
-0.53938574 0.43851361 1.5530238
-0.53648645 0.43843409 1.5527422
-0.53358829 0.43835467 1.5524609
-0.56709927 0.4410772 1.5521848
-0.56439269 0.44115061 1.5524431
-0.5616852 0.44122404 1.5527016
-0.55897683 0.4412975 1.55296
-0.55626756 0.44137099 1.5532187
-0.5535574 0.44144452 1.5534774
-0.55068237 0.44138664 1.5532738
-0.54778236 0.44130802 1.5529971
-0.54488319 0.44122931 1.5527201
-0.54198492 0.44115052 1.5524428
-0.53908771 0.44107175 1.5521656
-0.58755589 0.41647756 1.554442
-0.58500463 0.41665798 1.5551155
-0.58246571 0.41684896 1.5558282
-0.5234704 0.41681156 1.5556886
-0.52037996 0.41658449 1.5548412
-0.51732403 0.41638276 1.5540882
-0.58473897 0.41927329 1.5544093
-0.58223271 0.41948813 1.5552058
-0.52635056 0.41967681 1.5559053
-0.52320701 0.41940722 1.5549058
-0.58200288 0.42212737 1.5545919
-0.57949489 0.42234373 1.5553887
-0.52608979 0.42227474 1.5551345
-0.52294809 0.42200366 1.5541363
-0.57925278 0.42497239 1.5547389
-0.57673907 0.42518723 1.5555248
-0.53198737 0.42530915 1.5559709
-0.52895474 0.42512807 1.5553085
-0.52581656 0.42485976 1.5543269
-0.57900637 0.42759553 1.5540775
-0.57648927 0.42780831 1.5548509
-0.57387024 0.42794722 1.5553558
-0.53175008 0.42792556 1.555277
-0.52867109 0.42770469 1.5544744
-0.57116348 0.42802179 1.5556267
-0.56845582 0.42809632 1.5558977
-0.53756392 0.42808613 1.5558606
-0.53465647 0.42800584 1.5555688
-0.57622528 0.43041646 1.554139
-0.57362002 0.43056566 1.5546777
-0.57091439 0.43064058 1.5549483
-0.56820786 0.43071556 1.5552191
-0.56550032 0.43079057 1.5554899
-0.56279188 0.43086559 1.5557607
-0.54312664 0.43085241 1.5557132
-0.54021871 0.4307718 1.5554221
-0.53731185 0.43069124 1.5551312
-0.53440607 0.43061066 1.5548402
-0.53150111 0.43052992 1.5545487
-0.57065266 0.43324736 1.5542355
-0.56794626 0.43332195 1.5545031
-0.56523889 0.43339658 1.5547708
-0.56253064 0.43347126 1.5550387
-0.55982125 0.43354577 1.555306
-0.55711085 0.43362027 1.5555732
-0.55439949 0.43369478 1.5558406
-0.55157804 0.43368348 1.5558001
-0.54866928 0.43360308 1.5555116
-0.54576159 0.4335227 1.5552232
-0.54285496 0.43344235 1.554935
-0.53994989 0.43336236 1.554648
-0.53704602 0.43328255 1.5543617
-0.53414321 0.43320277 1.5540755
-0.56497085 0.43599489 1.5540335
-0.56226218 0.43606865 1.5542965
-0.55955255 0.43614247 1.5545596
-0.55684203 0.43621629 1.5548227
-0.55413061 0.43629017 1.555086
-0.55129194 0.4362641 1.554993
-0.54838663 0.43618476 1.5547103
-0.54548258 0.43610558 1.5544281
-0.54257959 0.43602648 1.5541462
-0.55656123 0.43880016 1.5540386
-0.55385113 0.43887442 1.5543016
-0.55099416 0.43883252 1.5541532
-0.5856598 0.41431567 1.556857
-0.58299035 0.41441482 1.5572295
-0.58036911 0.41454935 1.5577351
-0.52704376 0.41460776 1.5579545
-0.5240283 0.41444597 1.5573466
-0.52105999 0.41431993 1.556873
-0.51815522 0.41424331 1.5565851
-0.57994664 0.41705605 1.5566012
-0.57743466 0.4172703 1.5574008
-0.57476544 0.41737247 1.5577822
-0.5326432 0.41740113 1.5578891
-0.52972746 0.41731843 1.5575805
-0.52660358 0.41707003 1.5566534
-0.57972383 0.41970322 1.5560032
-0.57721245 0.41991854 1.5568014
-0.52949798 0.4199467 1.5569059
-0.5745554 0.42002949 1.5572128
-0.57184869 0.42010507 1.557493
-0.56914103 0.42018065 1.5577732
-0.53826052 0.4202086 1.5578768
-0.53534603 0.42012718 1.557575
-0.53243262 0.42004579 1.5572733
-0.57698435 0.42256033 1.5561863
-0.57433987 0.42268044 1.5566287
-0.57163268 0.42275539 1.5569047
-0.56892455 0.42283034 1.5571808
-0.56621552 0.42290539 1.5574571
-0.56350541 0.42298037 1.5577333
-0.54386711 0.42300773 1.557834
-0.54095304 0.4229269 1.5575364
-0.5380401 0.42284614 1.5572389
-0.5351283 0.42276537 1.5569415
-0.53221756 0.42268464 1.5566442
-0.52923554 0.42254615 1.5561341
-0.57410884 0.42531779 1.5560025
-0.57140273 0.42539319 1.5562783
-0.56869566 0.42546859 1.5565542
-0.56598759 0.42554402 1.5568302
-0.56327862 0.42561948 1.5571063
-0.56056863 0.42569497 1.5573825
-0.55785769 0.42577049 1.5576587
-0.5551458 0.42584601 1.557935
-0.54946029 0.4257966 1.5577542
-0.54654539 0.4257153 1.5574567
-0.54363155 0.42563403 1.5571594
-0.54071885 0.42555276 1.5568621
-0.53780729 0.42547154 1.556565
-0.53489679 0.42539036 1.556268
-0.5657472 0.42817095 1.5561689
-0.56303769 0.42824563 1.5564404
-0.56032729 0.42832035 1.5567119
-0.55761588 0.42839506 1.5569835
-0.55490357 0.42846984 1.5572551
-0.55211669 0.42848751 1.5573194
-0.54920405 0.42840728 1.5570278
-0.54629254 0.42832705 1.5567362
-0.54338205 0.42824683 1.5564446
-0.54047239 0.42816645 1.5561526
-0.56008142 0.43093985 1.5560288
-0.55736983 0.43101397 1.5562965
-0.55465728 0.43108803 1.556564
-0.55185312 0.43109137 1.556576
-0.54894328 0.43101171 1.5562884
-0.54603469 0.43093225 1.5560014
-0.5777753 0.41470489 1.5583196
-0.5750584 0.41477317 1.5585761
-0.57233113 0.41483462 1.558807
-0.56960738 0.4148992 1.5590497
-0.56688279 0.41496384 1.5592926
-0.56415772 0.41502875 1.5595365
-0.56143379 0.41509515 1.559786
-0.54453391 0.41508397 1.559744
-0.54162908 0.41501451 1.5594829
-0.53872579 0.41494542 1.5592234
-0.5358234 0.4148764 1.558964
-0.53292191 0.41480726 1.5587043
-0.53003138 0.41474605 1.5584742
-0.57205975 0.417449 1.5580678
-0.56935233 0.41752505 1.5583516
-0.56664264 0.41760018 1.558632
-0.563932 0.41767532 1.5589125
-0.56122041 0.41775051 1.5591931
-0.5585078 0.41782573 1.5594739
-0.55579418 0.41790095 1.5597546
-0.55015016 0.417889 1.55971
-0.54722983 0.41780788 1.5594072
-0.54431075 0.41772684 1.5591048
-0.54139274 0.41764584 1.5588025
-0.53847593 0.41756487 1.5585003
-0.53555989 0.41748369 1.5581973
-0.56643236 0.42025629 1.5580536
-0.56372279 0.42033195 1.5583341
-0.56101215 0.42040759 1.5586146
-0.55830055 0.42048329 1.5588952
-0.55558795 0.42055899 1.5591758
-0.55285066 0.42061666 1.5593897
-0.54993039 0.420535 1.5590869
-0.5470112 0.42045337 1.5587842
-0.54409313 0.42037171 1.5584816
-0.54117626 0.42029014 1.5581791
-0.56079441 0.42305544 1.5580097
-0.55808246 0.42313054 1.5582863
-0.55536956 0.42320564 1.5585629
-0.55261582 0.42325029 1.5587273
-0.54969841 0.42316937 1.5584294
-0.54678226 0.42308855 1.5581317
-0.55237633 0.42587793 1.5580517
-0.5730499 0.41253963 1.5607647
-0.57027477 0.41256917 1.5608764
-0.56749922 0.41259867 1.5609881
-0.56472677 0.4126308 1.5611095
-0.56195748 0.41266552 1.5612409
-0.55920202 0.41271079 1.5614122
-0.55644667 0.41275665 1.5615858
-0.55369073 0.41280252 1.5617592
-0.55083179 0.41277164 1.5616424
-0.54795003 0.4127233 1.5614595
-0.54506904 0.41267499 1.5612768
-0.54220313 0.41263768 1.5611356
-0.53933978 0.41260198 1.5610006
-0.53647667 0.41256607 1.5608647
-0.53362936 0.41254196 1.5607735
-0.53079063 0.41252428 1.5607066
-0.52794945 0.41250449 1.5606318
-0.55871713 0.41516766 1.5600585
-0.55599964 0.41524023 1.5603311
-0.55328107 0.41531277 1.5606037
-0.55036914 0.41524014 1.5603309
-0.54745084 0.41516197 1.560037
-0.55307168 0.41797018 1.5600131
