# .PCD v0.7 - Point Cloud Data file format
VERSION 0.7
FIELDS x y z
SIZE 4 4 4
TYPE F F F
COUNT 1 1 1
WIDTH 1475
HEIGHT 1
VIEWPOINT 0 0 0 1 0 0 0
POINTS 1475
DATA ascii
0.092275932 0.46917763 1.4406865
0.095081054 0.46759039 1.4438115
0.0026047819 0.47155127 1.4439766
0.0077982023 0.47310251 1.4407659
0.092399538 0.47240889 1.4426162
0.0078086215 0.47634268 1.4427067
0.011700591 0.47972426 1.441135
0.089722455 0.47721943 1.4414229
0.092523471 0.47564885 1.4445512
0.009118095 0.48065388 1.4439278
0.011712998 0.48283583 1.4426632
0.088458121 0.48130834 1.4419897
0.013017301 0.48559713 1.443134
0.016900484 0.48751396 1.4411035
0.043164536 0.41464117 1.4499483
0.047068685 0.41446754 1.4493412
0.052269377 0.41423625 1.4485323
0.057464268 0.41400522 1.4477246
0.062663935 0.41384327 1.4471583
0.067879722 0.41380543 1.4470258
0.073094919 0.4137696 1.4469006
0.078319535 0.41378748 1.4469631
0.083580233 0.41398254 1.4476452
0.087529972 0.41413435 1.448176
0.090207994 0.41443381 1.4492233
-0.0013079302 0.41984561 1.4498529
0.0026140849 0.41960132 1.4490094
0.0078366986 0.41927677 1.4478886
0.01305243 0.4189899 1.4468979
0.018713366 0.41820678 1.4472042
0.023073999 0.41749597 1.4477577
0.027438859 0.41680932 1.448392
0.031345397 0.41663498 1.4477862
0.036549278 0.41640276 1.4469793
0.041747358 0.41617078 1.4461732
0.046939649 0.41593903 1.4453678
0.089954123 0.41587487 1.4451448
0.092720404 0.41658884 1.4476259
0.095363691 0.41933897 1.4481034
-0.013073303 0.42487592 1.4491659
-0.0078417696 0.42343858 1.4487226
-0.0030457117 0.42248654 1.4469541
0.0026085766 0.42133409 1.4459839
0.097993776 0.42333204 1.4483602
-0.017866334 0.42834571 1.4491113
-0.013063014 0.42845944 1.4480228
-0.0078314487 0.428094 1.4467885
-0.0039110593 0.42630544 1.4451486
0.097825438 0.42651892 1.4458722
-0.016995827 0.43273991 1.4492334
-0.013065422 0.43245602 1.4482826
-0.0078287972 0.43314332 1.4462154
-0.017001007 0.4354873 1.449675
-0.013071389 0.43657506 1.4489441
-0.0091360919 0.43853229 1.4467776
0.10069956 0.4354929 1.4496936
-0.012636586 0.44138965 1.4490175
-0.0091333184 0.44361824 1.4463384
-0.011757338 0.44677877 1.4481244
-0.0091312397 0.44743076 1.4460093
0.097786307 0.44981703 1.4452939
-0.012633628 0.4517329 1.4486517
-0.009131399 0.45135206 1.4460346
0.097875699 0.45283824 1.4466151
-0.011768454 0.4563545 1.4494935
-0.0091384053 0.45692116 1.447144
0.097957164 0.45713359 1.4478192
-0.0065298826 0.46231657 1.4476873
-0.0039115837 0.46287075 1.4453424
0.098008573 0.46260065 1.4485791
-0.0030477175 0.46789789 1.4474487
0.098060034 0.46807343 1.4493396
-0.0013069578 0.47311959 1.4487749
0.0013048392 0.47365662 1.4464265
0.09527269 0.472449 1.4467214
0.0030453634 0.47736776 1.4471277
0.0065180217 0.47842279 1.4450576
0.0039229593 0.48252401 1.4495457
0.0073952898 0.48335746 1.4468216
0.03711937 0.41441822 1.4522281
0.041505039 0.41373181 1.4528847
0.04719843 0.41298789 1.4533362
0.052413374 0.4127568 1.452523
0.057637926 0.41263539 1.4520957
0.062871963 0.41259748 1.4519625
0.068105042 0.41255957 1.4518292
0.07333754 0.41252384 1.4517033
0.078569457 0.41248977 1.4515834
0.082496688 0.41248342 1.4515611
0.086465627 0.41267547 1.4522369
-0.0065625184 0.41868868 1.4549227
-0.0026239096 0.41847858 1.4541926
0.0026215217 0.41817337 1.4531319
0.00785896 0.41784826 1.4520023
0.01353762 0.41702554 1.4521834
0.017911 0.41630569 1.4527192
0.023594052 0.4155212 1.4530258
0.027514447 0.41533712 1.452382
0.031431708 0.41516292 1.4517728
0.092975378 0.41511542 1.4516068
-0.023173017 0.42279601 1.4540039
-0.018349761 0.42203641 1.4528954
-0.013094658 0.42163709 1.4515207
-0.0078553539 0.42024723 1.4512398
-0.0039253146 0.42000866 1.450416
-0.023596086 0.4273335 1.4530773
-0.018318471 0.42524302 1.450418
-0.023163863 0.43223143 1.4533858
-0.019627932 0.43181473 1.4505165
0.10084222 0.43217963 1.4517474
-0.02229416 0.43801486 1.4537226
-0.018762952 0.43764365 1.4510436
0.10075157 0.43833473 1.4504423
-0.0223056 0.44217572 1.4544686
-0.018334359 0.44262531 1.4516393
-0.014392317 0.44354504 1.4503653
0.1008903 0.44286969 1.4524395
-0.018347405 0.44817916 1.4526623
-0.014390036 0.4473992 1.4501355
0.10102937 0.44741577 1.4544415
-0.017031487 0.45198947 1.4522741
-0.014397449 0.45417407 1.4508824
-0.017051604 0.45514667 1.4539895
-0.01310018 0.45848447 1.4521
-0.01311611 0.46166718 1.4538722
-0.0091627976 0.46337664 1.4510067
-0.011812949 0.4659552 1.4549738
-0.0078615481 0.467677 1.4521691
-0.0065555782 0.47200242 1.4533839
-0.0039272462 0.47257861 1.4511297
-0.0030596564 0.47760543 1.4531473
-0.0013112376 0.48122418 1.4535191
0.0013091941 0.48178428 1.4512539
0.0092195598 0.41488019 1.4599955
0.013163045 0.414644 1.4591644
0.018414322 0.4143275 1.4580506
0.023659699 0.41404849 1.4570687
0.02759045 0.41385674 1.456394
0.031985078 0.41316724 1.4570566
0.036383003 0.41247797 1.4577175
0.042093739 0.41173118 1.4581722
0.04732921 0.41150272 1.4573629
0.052577496 0.41141915 1.457067
0.057829924 0.41138124 1.4569328
0.063081384 0.41134334 1.4567986
0.068331867 0.41130546 1.4566643
0.073581785 0.41126978 1.456538
0.077518873 0.41124421 1.4564475
0.081455424 0.41121864 1.456357
-0.022377571 0.41990855 1.4591616
-0.018410206 0.41948265 1.4576817
-0.012709533 0.41855359 1.4575043
-0.0083290115 0.41779459 1.4579147
-0.0026311195 0.41699749 1.4581881
0.0026289145 0.41671789 1.4572104
0.0078813657 0.41641235 1.4561419
0.011815522 0.41616896 1.4552908
-0.027609754 0.42334855 1.457413
-0.024949942 0.42152271 1.4556445
-0.030260829 0.42759866 1.4584527
-0.027589776 0.42829847 1.4563583
-0.030271258 0.43169475 1.4589554
-0.027600506 0.43240795 1.4569248
-0.024942279 0.43452075 1.4551973
0.10136976 0.43049237 1.459342
-0.027617451 0.4366191 1.4578192
-0.024950819 0.43729594 1.4556956
-0.027644485 0.44099537 1.4592463
-0.024083659 0.44268921 1.4561599
-0.025012786 0.44891366 1.4593109
-0.023662522 0.44694018 1.4571719
-0.022360485 0.45247161 1.4580475
-0.019694252 0.45296779 1.4554175
0.10116886 0.45197576 1.4564497
-0.018841421 0.45787016 1.4570907
0.10129285 0.45779127 1.4582348
-0.017101917 0.46306807 1.4582796
-0.014450171 0.46371913 1.4561955
0.101333 0.46192056 1.4588127
-0.013147047 0.46801466 1.4573013
-0.01316257 0.47119963 1.4590218
-0.0091963792 0.47295743 1.4563247
0.098660111 0.474884 1.4582088
-0.0074515999 0.47816384 1.4575133
-0.0039416524 0.48219547 1.4564528
0.0079253912 0.41345286 1.4642696
0.013200242 0.41317451 1.4632838
0.018466696 0.41286832 1.4621993
0.022411568 0.41263652 1.4613785
0.026390189 0.41168848 1.4627005
0.031226778 0.41121578 1.4625827
0.036954962 0.41046613 1.4630404
0.042212915 0.41025788 1.462298
0.047482304 0.41019461 1.4620726
0.05275324 0.41015667 1.4619374
0.058023199 0.41011876 1.4618022
0.06329219 0.41008085 1.4616671
0.068560198 0.41004294 1.4615319
0.072510846 0.41001585 1.4614354
0.075177029 0.41017643 1.4620078
-0.022466753 0.41893885 1.4649768
-0.018463908 0.41805941 1.4619014
-0.013637253 0.41661167 1.4629979
-0.0079199933 0.41578794 1.46319
-0.0026383693 0.41550821 1.4622055
0.0026361523 0.41522884 1.4612225
0.0065876124 0.4150196 1.4604861
-0.030354559 0.42364407 1.4629701
-0.026389075 0.42088938 1.46257
0.099104881 0.42416891 1.4647826
-0.032102097 0.42698571 1.4623622
0.10170677 0.42928183 1.4641937
-0.035681866 0.43214706 1.4649513
-0.032968819 0.43255138 1.4618498
-0.031662643 0.43798092 1.4623657
0.1043384 0.4384858 1.4640518
-0.030352667 0.44341335 1.4628789
-0.027664067 0.44394243 1.4602799
-0.030389003 0.44790748 1.4646302
-0.027696403 0.44841856 1.4619868
-0.026385939 0.45249292 1.4623692
-0.025072677 0.45658731 1.4628052
-0.022393245 0.45708564 1.4601836
-0.025109971 0.46123052 1.464981
-0.022428451 0.46176299 1.4624794
-0.019761249 0.46241325 1.4603688
-0.018908313 0.46741036 1.4622635
0.1016667 0.46608242 1.4636168
-0.017162677 0.47263452 1.4634607
-0.014501438 0.47327417 1.4613618
-0.012747426 0.47689819 1.4616941
-0.0092235515 0.48094231 1.4606276
0.022538517 0.40967071 1.4696563
0.026501695 0.40945503 1.4688827
0.031781759 0.40919259 1.4679412
0.037061855 0.40900457 1.4672667
0.042351976 0.40896159 1.4671125
0.04764156 0.40892363 1.4669764
0.052930161 0.40888572 1.4668403
0.05823832 0.4089908 1.4672173
0.063560307 0.40916854 1.4678549
-0.013255525 0.41488743 1.4693501
-0.0079453904 0.41446704 1.4678613
-0.0026460057 0.41404748 1.4663756
0.0030880263 0.41325608 1.4667028
0.0079480559 0.41199166 1.468478
0.013236737 0.41166943 1.4673295
0.018519018 0.41139174 1.4663395
0.022475302 0.41116583 1.4655343
-0.025149057 0.41959214 1.4672613
-0.018530857 0.41692179 1.46718
-0.032220218 0.42326245 1.4677497
-0.027838401 0.42022729 1.4694823
0.096548483 0.42190364 1.4660945
-0.035729915 0.42875782 1.466924
0.10188819 0.4274011 1.4668053
0.1047603 0.43362805 1.4699718
-0.035713419 0.43649772 1.4662466
0.10451411 0.43525496 1.4665173
-0.035758667 0.44234842 1.4681044
-0.033050843 0.44288129 1.4654868
0.10442748 0.44282538 1.4653018
-0.035804559 0.44689393 1.4699885
-0.033091843 0.44740236 1.4673047
0.10451671 0.44717318 1.4665539
-0.03133459 0.45234993 1.4676126
0.1046215 0.45291856 1.4680241
-0.030475779 0.45713669 1.4688125
-0.027775532 0.45763561 1.4661636
-0.026475916 0.46331257 1.4673922
-0.026503555 0.46644777 1.4689279
-0.022481441 0.46814373 1.4659346
-0.02519243 0.47070068 1.4697919
-0.022521509 0.47295171 1.4685473
-0.019831559 0.47199109 1.4655646
-0.018524161 0.47632062 1.4666847
0.01989446 0.40982589 1.4702131
0.022614658 0.4083941 1.4746212
0.026584638 0.40807945 1.473485
0.031895831 0.4080013 1.4732027
0.037221927 0.40811026 1.4735962
0.042557888 0.40828836 1.4742393
0.046562772 0.40842205 1.474722
0.067635119 0.40978923 1.4700816
-0.01330159 0.41366893 1.4744563
-0.0079729743 0.41324836 1.4729571
-0.0026551834 0.41282859 1.4714611
0.002658728 0.41179588 1.4725219
0.0079756593 0.41076386 1.473578
0.013279483 0.41034645 1.4720806
0.017250618 0.41003394 1.4709594
-0.025243031 0.41850287 1.472744
-0.022551654 0.41786888 1.470513
-0.018600103 0.41582263 1.4726622
-0.030535901 0.42086437 1.4717101
0.09967801 0.42396381 1.4732535
0.10232331 0.4265686 1.4730694
0.10500906 0.42934087 1.4734625
0.10488904 0.43150553 1.4717783
0.10773557 0.4349325 1.4743937
0.10773318 0.43758294 1.4743611
-0.035838697 0.44997478 1.4713901
-0.035872903 0.45306146 1.4727944
-0.035907175 0.45615411 1.4742014
-0.03318651 0.45664704 1.4715023
-0.031425834 0.46163416 1.4718866
-0.030582078 0.46803942 1.4739356
-0.027872344 0.46852082 1.471274
-0.027020143 0.47350168 1.4730053
-0.022548471 0.47617063 1.4703053
0.0040052361 0.40986913 1.4799472
0.0080039334 0.40955219 1.4788027
0.013326377 0.40913033 1.4772794
0.018637868 0.40870932 1.4757593
0.049234245 0.40851119 1.4750439
0.053243801 0.40864503 1.4755273
0.057255682 0.40877894 1.4760107
-0.017322162 0.41439942 1.47706
-0.012009806 0.41233668 1.4792203
-0.008000751 0.41202116 1.4780884
-0.0026644249 0.41160119 1.4765818
0.0013310252 0.41128677 1.4754539
-0.027975371 0.41963059 1.4767125
-0.022636112 0.41677076 1.4760201
0.086721644 0.4175981 1.4789501
0.09193904 0.41972169 1.4770331
0.094715193 0.42021528 1.4787701
0.098146647 0.42145404 1.4768839
0.10177076 0.42263994 1.477928
0.106173 0.42691016 1.4773186
0.10787973 0.43151829 1.4763665
0.11077287 0.43641841 1.4794309
0.1079368 0.44240803 1.4771476
0.1080074 0.44803083 1.4781137
-0.035941511 0.45925266 1.4756112
-0.036027256 0.46301699 1.4791316
-0.033268362 0.46442634 1.4751316
-0.033348911 0.46821868 1.4787031
-0.030658569 0.47320837 1.4776223
0.0080332477 0.40837437 1.4842191
0.013375135 0.40795219 1.4826846
0.017374653 0.40763608 1.4815358
0.020060794 0.40790284 1.4825053
-0.014689914 0.41265306 1.4803553
-0.0080294609 0.41082305 1.4833915
-0.0026739514 0.41039854 1.4818587
0.0013357679 0.41008073 1.4807112
-0.025401501 0.41845632 1.4819896
-0.020037044 0.41543472 1.4807501
0.088267297 0.41726977 1.4825299
0.092275411 0.41858268 1.4824371
0.096392654 0.4190397 1.4840558
0.10178857 0.41920763 1.4846504
0.10289203 0.42092195 1.481257
0.10653231 0.42300698 1.4823223
0.10818966 0.42608029 1.4806081
0.1110238 0.42804283 1.4827821
0.110848 0.43270752 1.4804344
0.11240905 0.43758386 1.4833915
0.11112665 0.44316775 1.4841559
-0.036157053 0.46736339 1.4844605
-0.033431321 0.47205022 1.4823573
-0.006716813 0.40972558 1.48913
-0.0026837669 0.40922141 1.4872975
0.0026802919 0.40879744 1.4857568
0.022795761 0.40898278 1.4864303
0.026831239 0.40917695 1.4871359
0.032194175 0.40913475 1.4869826
0.037556004 0.40909258 1.4868293
0.041576687 0.40906096 1.4867145
-0.017427664 0.41424218 1.4860561
-0.012061692 0.41143772 1.485611
0.079181172 0.41737872 1.4876792
0.083099477 0.41684061 1.4857612
0.089823507 0.41694194 1.4861224
0.092614256 0.41743526 1.4878807
0.096691623 0.41765353 1.4886587
0.1021044 0.41782144 1.4892571
0.10605642 0.41885433 1.4881587
0.10866595 0.42124701 1.4871262
0.11131477 0.42379996 1.4866683
0.11409356 0.42684358 1.4879268
0.11395666 0.4316943 1.4861414
0.11401565 0.43862492 1.4869108
0.11419835 0.44201478 1.4892935
0.11130439 0.44655859 1.4865297
-0.0013465522 0.4080053 1.4926656
0.0026901537 0.40761125 1.4912242
0.0080668842 0.40736568 1.4903256
0.012134325 0.40852228 1.494557
-0.014804916 0.41319174 1.4919443
-0.0094223451 0.41054502 1.4921082
0.079553835 0.41664636 1.4946809
0.083537236 0.41633958 1.4935803
0.087549999 0.41619924 1.4930769
0.091573238 0.41611937 1.4927903
0.096977778 0.41619605 1.4930655
0.10238318 0.41626823 1.4933244
0.10819846 0.41708052 1.4930209
0.11319618 0.41909266 1.4937882
0.11343155 0.42189148 1.490981
0.11721335 0.42439315 1.4934723
0.1171108 0.42805994 1.4921658
0.11702267 0.4331181 1.4910429
0.11712749 0.43754521 1.4923784
0.11445924 0.44571775 1.4926958
-0.0040477547 0.40882322 1.495658
0.014870426 0.40961263 1.498546
0.091864064 0.41474155 1.4975404
0.097225085 0.41455674 1.496873
0.10264432 0.4146288 1.4971333
0.10806544 0.4147009 1.4973936
0.082526729 0.41533944 1.4996992
0.086555965 0.41519886 1.4991918
0.11301342 0.4164826 1.497327
0.11765408 0.41787484 1.4990879
0.1174235 0.42110413 1.4961501
0.12031643 0.42313531 1.4985605
0.12021732 0.42683882 1.4973263
0.12014462 0.43198058 1.4964206
0.12036749 0.43683931 1.4991965
0.11740695 0.4412882 1.4959391
0.08819478 0.41383705 1.5040729
0.092153698 0.4133389 1.5022624
0.097487234 0.41296732 1.500912
0.10304087 0.41216162 1.5029178
0.10834183 0.41305298 1.5012233
0.11245047 0.41322163 1.5018362
0.11668782 0.41383234 1.5040559
0.077223368 0.41863194 1.501804
0.11645919 0.41572958 1.5011079
0.12066117 0.41756812 1.5028543
0.12241745 0.42235884 1.5022087
0.12330015 0.42816287 1.501971
0.12338531 0.43252653 1.5030085
0.12069673 0.44074652 1.5032973
0.099412367 0.40990579 1.5095828
0.10346765 0.40978688 1.5091448
0.10753287 0.40971383 1.5088758
0.11163112 0.40976769 1.5090742
0.11575078 0.40989393 1.5095391
0.087012902 0.41330194 1.5070753
0.092447139 0.41193604 1.507046
0.09777274 0.41146082 1.5053076
0.10861965 0.41139665 1.5050728
0.11270759 0.41145059 1.5052701
0.11692901 0.41196841 1.5071645
0.12106864 0.41353649 1.5079296
0.081577778 0.41603714 1.5071334
0.12370759 0.41734114 1.5069345
0.12655252 0.42184138 1.5084373
0.12650955 0.42714018 1.507925
0.12666184 0.43173984 1.5097402
0.12363724 0.43612698 1.5060774
0.098366097 0.40849411 1.5144466
0.10241697 0.40830234 1.5137357
0.10648254 0.40818354 1.5132953
0.11191886 0.40809417 1.512964
0.11743326 0.40828383 1.513667
0.085935913 0.41331083 1.5120757
0.092742458 0.41052419 1.5118603
0.096717417 0.41002735 1.5100305
0.11859158 0.4102996 1.5110331
0.1232568 0.41161311 1.5125238
0.12699132 0.41374594 1.5136675
0.12777703 0.41788641 1.5121793
0.12971136 0.42326885 1.5135396
0.18638441 0.40291977 1.5191857
0.19140393 0.40336391 1.5191374
0.093058854 0.40918896 1.5170227
0.098669156 0.40701252 1.5191152
0.10271948 0.40676913 1.5182067
0.10679695 0.40665042 1.5177637
0.11223006 0.40649229 1.5171735
0.11770684 0.40649879 1.5171978
0.12272766 0.40833095 1.5172281
0.12741263 0.40963846 1.5186893
0.1302537 0.4099564 1.5198679
0.1796225 0.40997806 1.5199482
0.18359892 0.40830275 1.5188178
0.18764573 0.40816361 1.5182998
0.19177786 0.40821254 1.5184811
0.083477132 0.41464871 1.5169703
0.0876102 0.41205221 1.5174875
0.12715265 0.41153708 1.5155904
0.13010073 0.41358262 1.5180829
0.1795682 0.41259563 1.5194888
0.18351194 0.41221753 1.5180963
0.18767948 0.4123469 1.5185728
0.19051318 0.41255012 1.5193212
0.12989236 0.41702285 1.5156516
0.13294311 0.418017 1.5192648
0.17962416 0.41546655 1.5199623
0.18316762 0.41612425 1.5190252
0.18782602 0.41541085 1.5197585
0.13293889 0.42074472 1.5192165
0.1298496 0.42782024 1.5151526
0.12996785 0.43094605 1.5165325
0.12715261 0.43614712 1.51559
0.17998382 0.39981142 1.5230058
0.18184382 0.39804175 1.5232471
0.18669344 0.39809561 1.5217032
0.19226936 0.39827019 1.52237
0.19649021 0.39985073 1.5231556
0.11256231 0.40495026 1.5216649
0.11801562 0.40482116 1.5211798
0.17328009 0.40294605 1.5244693
0.17855559 0.40243754 1.5225501
0.18244019 0.40328854 1.5205765
0.19339041 0.40186805 1.5203907
0.19774267 0.40234739 1.522211
0.20217748 0.40297958 1.5245961
0.094673499 0.40750766 1.5209632
0.09765213 0.40573773 1.524624
0.10167247 0.40531719 1.5230436
0.10711323 0.40510827 1.5222588
0.12350339 0.40619063 1.521172
0.12686759 0.40625095 1.5231138
0.13147615 0.40725473 1.5234418
0.17317389 0.40682217 1.5235355
0.17797554 0.40673664 1.5215025
0.19814719 0.4068172 1.5218033
0.087971017 0.41099286 1.5237105
0.13320136 0.41196278 1.5222161
0.13616334 0.41399157 1.5246297
0.17312917 0.41221386 1.5231432
0.17699735 0.41162175 1.5209552
0.19334966 0.41275352 1.5200703
0.19780549 0.41209245 1.5226932
0.13308552 0.41572076 1.5208923
0.1361412 0.41804993 1.5243816
0.1736445 0.41738924 1.5236435
0.17798543 0.41774058 1.5215858
0.18655413 0.4183743 1.5205634
0.19215646 0.41725385 1.5214777
0.19644335 0.41761419 1.5227923
0.13306029 0.42387247 1.5206039
0.13619338 0.42233706 1.5249661
0.17469852 0.42230272 1.5248421
0.17863068 0.42321929 1.5231885
0.18251409 0.42266473 1.5211923
0.18677089 0.4229809 1.5223302
0.19195677 0.42285481 1.5235262
0.19664986 0.42217839 1.5243932
0.13315289 0.42828572 1.5216621
0.18141249 0.4274199 1.5234692
0.1869881 0.42759699 1.5241005
0.19395398 0.42504808 1.5248213
0.18288493 0.43039837 1.5242832
0.17657304 0.39315152 1.5291654
0.18204063 0.39304239 1.5287409
0.1875357 0.39299768 1.5285671
0.19245374 0.39363229 1.5274668
0.19727419 0.39316887 1.5292329
0.16830482 0.39869034 1.5292457
0.17319651 0.39738807 1.5277778
0.17676134 0.39622167 1.526824
0.18170428 0.39506924 1.5259163
0.18718924 0.39502442 1.5257431
0.19410312 0.39508933 1.5259938
0.19834629 0.39669037 1.5268614
0.20272954 0.3985635 1.5287591
0.10198751 0.40381733 1.5277655
0.1074314 0.40355694 1.5267804
0.11289653 0.40339905 1.526183
0.11835738 0.40324131 1.5255862
0.12176537 0.40205726 1.5280668
0.12679851 0.40244564 1.527795
0.13189843 0.40304849 1.5283375
0.13653713 0.40409476 1.5288152
0.16277561 0.40280133 1.5291421
0.16807659 0.40228224 1.5271722
0.17341802 0.40051419 1.5256829
0.20240697 0.40068319 1.5263268
0.20545337 0.40263316 1.5285033
0.089561291 0.40922621 1.5273774
0.092228107 0.40883207 1.5259063
0.09516716 0.40687409 1.5288941
0.13347265 0.405922 1.5253164
0.13777509 0.40781099 1.5272392
0.14215459 0.40990207 1.5299
0.1586971 0.40847254 1.5297151
0.1627064 0.40814582 1.5284913
0.16795731 0.40750456 1.52609
0.20234838 0.4074502 1.5258849
0.20558316 0.40840718 1.5294688
0.084041342 0.4146958 1.5272232
0.1381541 0.41262409 1.5263547
0.14297272 0.41328502 1.5288023
0.15870327 0.4126285 1.5297744
0.16316237 0.41319212 1.5284566
0.16795582 0.41300768 1.5260763
0.2025767 0.41342223 1.5276065
0.13910307 0.41730922 1.5267036
0.14211991 0.4180809 1.5295267
0.1587241 0.41544306 1.5299752
0.16274533 0.41651797 1.5288551
0.16799453 0.41723391 1.5264281
0.1719961 0.41967046 1.5252743
0.19957754 0.41842502 1.5257488
0.20275389 0.41792127 1.5289427
0.13930111 0.42204118 1.528877
0.16424385 0.42096111 1.529965
0.16818218 0.42183638 1.5281339
0.17210989 0.42270187 1.5262834
0.19975096 0.422921 1.5270746
0.2028845 0.4209508 1.5299276
0.13727632 0.4265151 1.5267925
0.16968057 0.42627069 1.5292073
0.17360854 0.42713451 1.5273613
0.17752837 0.42799476 1.5255183
0.19274828 0.4281753 1.5261619
0.19795637 0.42668441 1.5273948
0.17650905 0.43162212 1.5286171
0.18188077 0.43265343 1.5273836
0.1874249 0.4327316 1.527661
0.19306535 0.43163767 1.5286722
0.1716837 0.38905758 1.5347829
0.17719565 0.38899994 1.5345554
0.18271193 0.388955 1.5343783
0.18822691 0.38891011 1.5342011
0.19236238 0.38887647 1.5340683
0.19514036 0.38889673 1.5341483
0.15923078 0.39461541 1.5348593
0.16375048 0.39346197 1.5339631
0.16821425 0.39311507 1.5326115
0.17181371 0.391994 1.5318327
0.17687178 0.39105254 1.5317506
0.18237826 0.39100802 1.5315762
0.18788347 0.39096349 1.5314016
0.19338742 0.39091897 1.5312274
0.19753692 0.3909297 1.5312694
0.2013936 0.39310792 1.5325823
0.11764049 0.39997765 1.5341834
0.12170985 0.39970723 1.5331461
0.12719563 0.39955992 1.532581
0.1327585 0.39965814 1.5329578
0.13696139 0.39981654 1.5335654
0.15273024 0.39912811 1.5344658
0.15767345 0.39833337 1.5331836
0.16303575 0.39791799 1.5315851
0.16845733 0.39628994 1.5306311
0.20305312 0.39643705 1.5311992
0.20695774 0.39870334 1.5328331
0.098117746 0.40490845 1.5318936
0.10236376 0.4025436 1.5334136
0.10775146 0.40199637 1.5313289
0.11379659 0.40127847 1.5321107
0.117341 0.40172037 1.5302777
0.1339196 0.40175879 1.530424
0.13889676 0.40217564 1.5320185
0.14244246 0.40381658 1.5329981
0.14670199 0.40135434 1.5341574
0.15218846 0.40260807 1.5336592
0.15748748 0.40339005 1.5313766
0.20862721 0.40343821 1.5315578
0.088506415 0.4079653 1.5329945
0.092621155 0.40642524 1.5324092
0.095434144 0.40524933 1.5331832
0.14225931 0.40744174 1.5310271
0.14656687 0.40651488 1.5327408
0.15210781 0.40654352 1.532849
0.1560553 0.407401 1.530874
0.20878182 0.40788502 1.5326928
0.084388629 0.41225818 1.5335343
0.087057777 0.41041523 1.5318153
0.14691637 0.41127285 1.5315789
0.15201761 0.41183102 1.5319412
0.15602228 0.411457 1.5305501
0.20791082 0.41259158 1.5330571
0.14496391 0.41556323 1.5304177
0.1470498 0.41809979 1.5329689
0.15218547 0.41781905 1.5336286
0.15708373 0.41781607 1.5319271
0.16150187 0.41824844 1.5301397
0.20596331 0.41745627 1.532297
0.14238495 0.4230085 1.532379
0.14623316 0.42301512 1.5340766
0.15090308 0.42225173 1.5346558
0.15773278 0.42200607 1.5337629
0.16261177 0.42334461 1.5319303
0.20301525 0.42398423 1.5309137
0.20616278 0.42201105 1.5337811
0.14814773 0.42505938 1.5347958
0.15920219 0.42500064 1.5345837
0.16322514 0.42743057 1.5333682
0.16847911 0.42810273 1.5308256
0.20180467 0.42848718 1.5322027
0.13704413 0.43328094 1.534492
0.16732347 0.43006283 1.5328896
0.17146383 0.43281031 1.5328252
0.18086454 0.43490329 1.5304583
0.19192246 0.43493217 1.53056
0.19752978 0.4323554 1.5312141
0.20075086 0.43334493 1.5347186
0.13415676 0.43566373 1.5331343
0.17698576 0.4355526 1.5327432
0.18413782 0.43888488 1.5347255
0.18824098 0.43876785 1.5343163
0.19359329 0.4369708 1.5328646
0.19656038 0.43741584 1.5344293
0.18337592 0.3848117 1.5399544
0.15958688 0.38994706 1.5382917
0.16322142 0.38886547 1.5376768
0.16688238 0.3878518 1.5373249
0.17198956 0.3869766 1.5375168
0.17751709 0.38693184 1.537339
0.18304332 0.3868871 1.5371612
0.18856829 0.38684237 1.5369835
0.19286063 0.38710874 1.5380418
0.19695699 0.3883675 1.5375388
0.20119485 0.38990176 1.538113
0.15270782 0.39287663 1.5388956
0.15740043 0.3924602 1.5372704
0.16208313 0.39204723 1.5356468
0.20357931 0.39192477 1.5351671
0.20757508 0.39341798 1.5373993
0.10974774 0.39870381 1.5399544
0.11247523 0.39852336 1.5392574
0.11656156 0.39825305 1.5382134
0.12200177 0.39789316 1.5368233
0.12763001 0.39676103 1.5378149
0.13269559 0.39716253 1.5375782
0.13738406 0.39688584 1.5382981
0.14151731 0.39680281 1.5379748
0.14699048 0.39659649 1.5371747
0.15201783 0.3959848 1.5365938
0.20928174 0.39638713 1.5363628
0.21244922 0.39851585 1.5392284
0.093043514 0.40411437 1.5393971
0.097051851 0.40346146 1.5369099
0.10270308 0.40109974 1.5384872
0.10807343 0.40042645 1.5359046
0.11219712 0.40030822 1.5354513
0.14266437 0.40029129 1.5353863
0.2120162 0.40186 1.5360912
0.084634684 0.40929887 1.5380056
0.087451518 0.40671894 1.5387433
0.090079613 0.40605119 1.5362169
0.21205157 0.40747213 1.5363475
0.21226421 0.41204229 1.5378881
0.081831381 0.41747874 1.5374721
0.20918678 0.41698822 1.5356656
0.21247733 0.41662267 1.539432
0.081826627 0.42022824 1.5373827
0.15371901 0.42238104 1.5351257
0.20938988 0.42155361 1.5371566
0.14283423 0.42850268 1.5372144
0.14863382 0.42923224 1.5398316
0.15256658 0.42718804 1.5374675
0.15761314 0.42754519 1.5370933
0.20756362 0.42668164 1.5373148
0.13993661 0.43089393 1.535852
0.16358145 0.43113825 1.5367228
0.16779767 0.43405512 1.5372338
0.20379713 0.43255031 1.5368097
0.17346966 0.43714356 1.538342
0.18150572 0.43921614 1.5358839
0.073828623 0.26884764 1.5441457
0.077960581 0.26868653 1.5432204
0.083510116 0.26862401 1.5428613
0.087697737 0.26866132 1.5430756
0.090506144 0.26873362 1.5434909
0.072845027 0.27328965 1.543005
0.07782419 0.27238512 1.540518
0.083376296 0.27236256 1.5403891
0.087647699 0.27268201 1.5421952
0.090552449 0.27305073 1.5442806
0.073803596 0.27850455 1.5436223
0.077876426 0.27813157 1.5415547
0.083456725 0.27818835 1.5418699
0.087719314 0.27708164 1.5434552
0.077955328 0.28258947 1.5431185
0.083527401 0.28259945 1.5431732
0.087774269 0.28004172 1.5444223
0.078482024 0.28652993 1.5443481
0.082186833 0.28695786 1.5441504
0.085003808 0.28566852 1.5447134
0.16162339 0.3831594 1.5444938
0.16745508 0.38361642 1.5426011
0.17245902 0.38385922 1.5417135
0.17800157 0.38381469 1.5415348
0.18239453 0.38288927 1.5434049
0.18647629 0.38408738 1.5426319
0.14766365 0.38866299 1.5442171
0.15313934 0.38702506 1.543244
0.15853132 0.38659391 1.5415254
0.16270953 0.38521832 1.5415816
0.16544153 0.38510337 1.5411217
0.19204724 0.38548493 1.5426486
0.19766767 0.38698465 1.5430855
0.20194617 0.38857231 1.5438567
0.1225889 0.39423573 1.544219
0.12807494 0.39396971 1.543177
0.13361286 0.39388025 1.5428267
0.13693558 0.39224002 1.5436788
0.14192805 0.39238888 1.5424392
0.14740083 0.39214173 1.5414673
0.15287882 0.39053699 1.5406189
0.2042913 0.39051601 1.5405362
0.10304449 0.3996489 1.5436047
0.10702509 0.39891168 1.5407573
0.11137511 0.39677492 1.5432587
0.11684205 0.39642942 1.5419149
0.12229508 0.3960703 1.540518
0.13476096 0.39594716 1.5400391
0.091860227 0.40361983 1.5428209
0.097359434 0.40195864 1.5417817
0.21594816 0.40263885 1.5443908
0.084941611 0.40799823 1.5435832
0.087709196 0.40513295 1.5432773
0.21576506 0.40647316 1.5430813
0.08215563 0.41217032 1.5435642
0.21567792 0.41187572 1.5424581
0.081973881 0.41542697 1.5401495
0.2126908 0.42121121 1.5409788
0.1458822 0.42931047 1.5401123
0.14324413 0.43251383 1.5416259
0.15999149 0.43267262 1.5421919
0.20718513 0.43244681 1.541387
0.16545466 0.43518746 1.541244
0.072173961 0.26774198 1.5484966
0.078205094 0.26673549 1.5480565
0.082381748 0.26669347 1.5478126
0.086556949 0.26665145 1.5475688
0.092150137 0.26807311 1.5477164
0.068437643 0.27235389 1.5482402
0.071082003 0.27178413 1.5450014
0.093512863 0.27356023 1.5471624
0.068460435 0.27663666 1.5487559
0.071115054 0.27748817 1.5457197
0.092105627 0.27770758 1.546942
0.072085671 0.28230008 1.5466181
0.087832078 0.28301448 1.5454394
0.090693042 0.28184652 1.5466782
0.07305824 0.28711757 1.5475169
0.076699078 0.28866744 1.5458481
0.086966239 0.28787065 1.5465617
0.090827115 0.28785267 1.5489647
0.074064985 0.29346558 1.5490894
0.078149356 0.29306293 1.5469638
0.082299739 0.2929318 1.5462718
0.08659026 0.29328737 1.548149
0.078237765 0.29758543 1.5487146
0.082389958 0.29744172 1.5479668
0.085229248 0.29760376 1.5488101
0.079659916 0.3004716 1.5491889
0.082450218 0.30045417 1.549099
0.08528579 0.30059746 1.5498377
0.16356148 0.37884754 1.5496533
0.16768882 0.37869757 1.5490398
0.1718632 0.37865797 1.5488778
0.14393897 0.38430309 1.549104
0.14853747 0.38321629 1.5484799
0.15306389 0.3828932 1.5471758
0.15678197 0.38195315 1.5471374
0.16190504 0.38103563 1.5471852
0.16738978 0.38081217 1.5462779
0.17293075 0.38072664 1.5459306
0.17713818 0.38077736 1.5461365
0.18153124 0.38121438 1.5479112
0.18711525 0.38261068 1.5479178
0.19270842 0.3840192 1.5479596
0.12988649 0.38965946 1.5481763
0.13271345 0.38836047 1.5485696
0.13683516 0.3881647 1.5477889
0.14232668 0.38790989 1.5467725
0.14782959 0.38631052 1.5459524
0.19959094 0.38662019 1.5471917
0.1130074 0.39482832 1.5465403
0.11725469 0.3936401 1.5473601
0.12287676 0.39236879 1.5478451
0.12795733 0.39131841 1.5473777
0.13243106 0.39171714 1.5452745
0.10474598 0.39803475 1.5481588
0.1073677 0.39739993 1.5456897
0.1103335 0.39524531 1.5481737
0.088012561 0.40374017 1.5486151
0.090680681 0.40318024 1.5464674
0.097715214 0.40063593 1.5474169
0.07966806 0.40952176 1.5493472
0.082381092 0.40771526 1.5478003
0.085088551 0.40591425 1.5462534
0.079537645 0.41303796 1.5468109
0.079613887 0.41762373 1.5482937
0.079669863 0.4207128 1.5493823
0.15487535 0.43393004 1.5466737
0.15759304 0.43372953 1.545959
0.074292772 0.26493084 1.5538535
0.078464583 0.26481819 1.5531929
0.082660139 0.26479265 1.553043
0.086856499 0.26477236 1.5529239
0.091052279 0.264752 1.5528047
0.068580031 0.26872057 1.5514615
0.071528606 0.26507661 1.5547085
0.093688324 0.26708165 1.5500655
0.09678524 0.27352351 1.5548891
0.096713573 0.27752644 1.5537378
0.06858854 0.28275344 1.551654
0.093727224 0.28258118 1.550709
0.068686716 0.28736278 1.5538749
0.071314685 0.28945372 1.5500587
0.093846478 0.28714219 1.552682
0.071368366 0.29247037 1.5512255
0.092433229 0.29129899 1.552448
0.07236404 0.29739702 1.5525938
0.088123582 0.29794165 1.5505686
0.091055661 0.29698211 1.5528623
0.074237138 0.30255193 1.55269
0.077881575 0.30266717 1.55089
0.082510568 0.30347109 1.5502329
0.087255687 0.30282694 1.5517093
0.091170341 0.30156344 1.5548182
0.074315555 0.30707747 1.55433
0.078432798 0.30813199 1.5525759
0.082601063 0.30800444 1.5519331
0.086883448 0.30829406 1.5533923
0.078511767 0.31264782 1.5541391
0.08269123 0.31254482 1.5536273
0.085532121 0.31268302 1.5543141
0.079929054 0.31550941 1.5544229
0.082751438 0.31557754 1.5547584
0.1429784 0.37987491 1.5538558
0.1484393 0.37950128 1.5523274
0.15181924 0.3779138 1.5534819
0.15682609 0.37806216 1.5521734
0.16191877 0.37749755 1.5517702
0.16804607 0.37670237 1.552335
0.17360458 0.378012 1.5519698
0.17771554 0.37921977 1.551176
0.18215373 0.3797192 1.5532188
0.1332494 0.38291669 1.5548233
0.13722357 0.3836658 1.5521832
0.14226013 0.38293543 1.5511141
0.14686315 0.38184416 1.5504683
0.18892094 0.38204014 1.551264
0.19188802 0.38237539 1.5526253
0.19722548 0.38465965 1.5505412
0.1247393 0.38823357 1.5536482
0.1274302 0.38789192 1.552281
0.13116547 0.38602713 1.5522934
0.11199853 0.39339876 1.5519083
0.11766858 0.39082879 1.5528221
0.12315531 0.39045963 1.5513554
0.098078161 0.39932179 1.5531647
0.10209259 0.39858064 1.550282
0.10639752 0.39619493 1.5518932
0.082664207 0.4049145 1.5531194
0.086847812 0.40341252 1.5527377
0.092363745 0.40164638 1.5513198
0.079837978 0.40759388 1.5526516
0.077082649 0.41344333 1.553579
0.076993123 0.4171626 1.5517745
0.074571833 0.26311195 1.5596901
0.077356353 0.2630116 1.5590954
0.081533164 0.26287481 1.5582844
0.0871429 0.26283407 1.558043
0.091397136 0.26294252 1.5586859
0.094034009 0.26526013 1.5557848
0.066007465 0.27947843 1.5568063
0.066027902 0.28237465 1.5572883
0.096819282 0.28203878 1.555436
0.066083476 0.2868309 1.5585989
0.096925259 0.28656214 1.5571384
0.068784267 0.29198283 1.5560818
0.094004147 0.29323682 1.5552907
0.097031422 0.29109427 1.5588441
0.068884365 0.29803079 1.5583463
0.094122767 0.29782188 1.5572532
0.068952635 0.30254731 1.5598907
0.071587309 0.30319381 1.5559845
0.092744313 0.30352089 1.5576726
0.071664616 0.30773631 1.5576648
0.091323733 0.30769074 1.5574341
0.07351318 0.31138191 1.5571575
0.088417031 0.31296822 1.5557319
0.091400623 0.31076214 1.5587454
0.074538752 0.31784511 1.5589983
0.078148223 0.31774235 1.5562011
0.082811736 0.31861463 1.5558913
0.087075166 0.31740093 1.5568199
0.077329814 0.32197323 1.5585605
0.081482902 0.32312137 1.5573153
0.086713113 0.32294592 1.5587307
0.077397794 0.32507074 1.5599306
0.081575908 0.32770932 1.5590937
0.15724745 0.37486702 1.5563431
0.16249573 0.37416199 1.5573111
0.16711277 0.37495047 1.5566896
0.13223082 0.37840652 1.5593574
0.13823013 0.37720314 1.5582634
0.14329869 0.37650988 1.5573356
0.14743745 0.37631536 1.5565315
0.15171403 0.37507135 1.5571914
0.17152788 0.37539166 1.5585213
0.17684945 0.37755823 1.5558618
0.182803 0.37826002 1.5587538
0.12237822 0.38401443 1.5592805
0.12696594 0.38277158 1.558041
0.13154836 0.38153663 1.5568253
0.13751101 0.38026106 1.5554353
0.18810219 0.38041416 1.5560615
0.1139736 0.38976157 1.559763
0.11849815 0.3882809 1.5575886
0.12307608 0.38701031 1.5562468
0.12765633 0.38577458 1.5550355
0.10674039 0.39466268 1.5568943
0.11235945 0.3918575 1.5569093
0.098443836 0.39799792 1.5589554
0.10244469 0.39714858 1.5556287
0.085673206 0.40308541 1.5568779
0.092716239 0.40037 1.5572418
0.071785182 0.26321232 1.5602852
0.066173472 0.2928533 1.5607216
0.097106263 0.29413345 1.5600464
0.066239163 0.29737157 1.5622709
0.097202361 0.29724202 1.5615903
0.066304997 0.30189979 1.5638236
0.097320132 0.30042303 1.5634823
0.069026515 0.30709809 1.5615621
0.094362199 0.30702984 1.5612147
0.069129907 0.31320131 1.5639009
0.071789622 0.31390363 1.5603818
0.093508862 0.31341365 1.5626196
0.071855851 0.31701112 1.5618213
0.091556653 0.31692687 1.5614063
0.072849326 0.32195207 1.5630089
0.091674484 0.32156652 1.5634158
0.074735731 0.3271457 1.5631181
0.077465899 0.3281737 1.5613031
0.087777793 0.32716963 1.5609924
0.077568278 0.33283907 1.5633667
0.081681132 0.33235854 1.5611097
0.087412789 0.33272949 1.5628521
0.081786603 0.33701849 1.5631304
0.086049028 0.33714291 1.5637075
0.083240829 0.34001762 1.5639532
0.13260008 0.37382039 1.563711
0.13811687 0.37347984 1.5622865
0.14243323 0.37229919 1.5632532
0.14662176 0.37219232 1.5628052
0.1522263 0.37210709 1.5624475
0.15783483 0.37203765 1.562156
0.16351685 0.37214404 1.5626028
0.16766821 0.37337881 1.5618638
0.1706368 0.3737087 1.5632437
0.11993772 0.37956762 1.5641422
0.12274607 0.37811345 1.5639675
0.12685113 0.37773487 1.562402
0.13241464 0.37611511 1.5615249
0.13653189 0.37581459 1.5602771
0.17748544 0.37609842 1.5614555
0.18204664 0.37679422 1.5643443
0.11836297 0.38327175 1.5619897
0.12252474 0.38165751 1.5611473
0.12525152 0.38138384 1.560028
0.11330598 0.38693359 1.5634991
0.11683682 0.38710994 1.5604181
0.10298566 0.3936027 1.5638434
0.10713457 0.39188856 1.5626383
0.11127836 0.39017856 1.5614318
0.094443582 0.39891842 1.5625612
0.10143991 0.39590138 1.5617808
0.088751979 0.40149704 1.5616254
0.097438179 0.30361173 1.5653788
0.066438541 0.30816275 1.5669734
0.097556517 0.30680817 1.5672799
0.097675145 0.31001243 1.5691857
0.069207639 0.31779018 1.5656595
0.094645977 0.31784096 1.5659097
0.069302484 0.32246938 1.5678053
0.094768137 0.32249516 1.5679309
0.06939888 0.32716614 1.5699859
0.072088644 0.32793328 1.5668809
0.092851557 0.32756695 1.5673876
0.073977277 0.33313876 1.5669914
0.09194003 0.33239856 1.5679444
0.074975505 0.3380971 1.5681331
0.077670909 0.33751541 1.5654352
0.088997036 0.33762369 1.5659373
0.092005588 0.33546653 1.5690625
0.076865911 0.34189191 1.568236
0.0814429 0.34224996 1.5655581
0.087634496 0.34205374 1.5668145
0.077890031 0.34696469 1.5698515
0.082036383 0.34795153 1.5679139
0.086299524 0.34802821 1.5682597
0.083512664 0.35245177 1.5690606
0.087779224 0.36386049 1.5694273
0.092025258 0.36385372 1.5693979
0.074960247 0.36914384 1.5678139
0.076878145 0.36741376 1.5684834
0.082008019 0.36762184 1.5673592
0.087621406 0.36744455 1.5666023
0.093330942 0.36766502 1.5675406
0.097710013 0.36676657 1.5697459
0.12745315 0.3696146 1.5698131
0.13308322 0.36951852 1.5694052
0.13731119 0.36946622 1.569183
0.14153796 0.36941427 1.5689625
0.14717191 0.36934507 1.5686684
0.15280372 0.36927584 1.5683744
0.15846404 0.36927736 1.5683808
0.12212793 0.37392762 1.5681072
0.12719689 0.37311119 1.5666604
0.13279864 0.37155437 1.5660514
0.13837245 0.37134671 1.565176
0.16679484 0.37175268 1.5668871
0.1725114 0.37330589 1.5674829
0.17671312 0.37463182 1.5671053
0.11461704 0.37781173 1.5685687
0.11734089 0.37746778 1.5671501
0.12008177 0.37719801 1.5660207
0.10905575 0.38381961 1.5699912
0.11311881 0.38177863 1.5674295
0.10333274 0.38926718 1.5691139
0.10791593 0.38783741 1.5671526
0.11162456 0.38574058 1.5662895
0.10132504 0.39257646 1.5672598
0.093358673 0.39888936 1.5679929
0.097482145 0.3969925 1.5660851
0.066575252 0.31304532 1.5701977
0.097788997 0.31320822 1.5710148
0.066712588 0.31795031 1.5734367
0.097932547 0.31792665 1.573321
0.069506481 0.3319298 1.5724202
0.094972409 0.33027717 1.5713105
0.095054366 0.33339965 1.5726665
0.072289363 0.33735096 1.5712438
0.092071243 0.33853889 1.5701821
0.095161721 0.33803764 1.5744426
0.072412312 0.34218368 1.5739162
0.075114667 0.34439364 1.5710436
0.092169911 0.34315619 1.5718648
0.075184435 0.34755069 1.5725029
0.089228801 0.3470009 1.5700153
0.092268772 0.34778231 1.5735508
0.077093169 0.35141662 1.572875
0.080777414 0.35286975 1.5709214
0.088346459 0.3519659 1.571105
0.092291236 0.35212636 1.5739338
0.078081459 0.35775548 1.5737096
0.082242042 0.35733074 1.5718412
0.087889612 0.35722858 1.5713937
0.09224318 0.35761961 1.5731143
0.095161758 0.35934216 1.5744433
0.072425053 0.36496547 1.5741931
0.076648816 0.36479276 1.5734482
0.082272679 0.36313611 1.5724225
0.087882534 0.36145282 1.57127
0.093540087 0.36282369 1.5710706
0.096935473 0.36267987 1.5724955
0.10171 0.36379078 1.5732104
0.10643944 0.3647325 1.5731883
0.069547489 0.36618757 1.5733479
0.072240114 0.368283 1.5701735
0.10213567 0.36740255 1.5724679
0.10836145 0.36672518 1.5736212
0.11221532 0.36789578 1.5745789
0.1164089 0.36768281 1.5736674
0.12243292 0.36824432 1.5720276
0.12775286 0.36764395 1.5735011
0.13342315 0.36762357 1.5734137
0.13766184 0.36757132 1.5731902
0.14190072 0.36752301 1.5729835
0.14758077 0.36753267 1.5730249
0.15327407 0.36757401 1.5732017
0.15759002 0.36771002 1.5737839
0.1629414 0.36980614 1.5706267
0.097876318 0.37022781 1.5724176
0.10225692 0.37068084 1.5743418
0.10790478 0.37198937 1.5738683
0.11349355 0.37169141 1.5726097
0.11768331 0.37148178 1.5717235
0.12045224 0.37127572 1.5708523
0.16751739 0.37052375 1.5736744
0.17441821 0.37294301 1.5719043
0.10788598 0.37760249 1.5735952
0.11290702 0.37651578 1.5710344
0.10367908 0.38347033 1.574373
0.10731754 0.3824679 1.5721978
0.1035927 0.38740832 1.5730613
0.1062256 0.3866612 1.5700277
0.09800382 0.39343563 1.574466
0.10079951 0.39042062 1.5737634
0.097752653 0.39526072 1.5704309
0.066850431 0.32287335 1.5766878
0.098076478 0.32265741 1.5756333
0.066981435 0.32635635 1.5797776
0.098220885 0.32740363 1.5779531
0.06964457 0.33685228 1.575544
0.069787428 0.34181696 1.5787759
0.095255755 0.34263635 1.5759984
0.072556958 0.34713614 1.5770602
0.095348135 0.34723848 1.577527
0.07263951 0.35322765 1.5788544
0.075304568 0.35378939 1.5750154
0.095395058 0.3531034 1.5783032
0.072676286 0.35768133 1.5796539
0.075361311 0.3568998 1.5762023
0.097222395 0.35805973 1.5771388
0.068384618 0.36329526 1.5792792
0.072613388 0.36306694 1.5782866
0.076339461 0.36178648 1.5768443
0.10296593 0.3610917 1.5779566
0.10815413 0.36288428 1.5774927
0.11249597 0.3631199 1.578517
0.11540202 0.36330265 1.5793114
0.064045668 0.36577192 1.5776716
0.066805311 0.36529711 1.5756236
0.11230499 0.36534661 1.5758371
0.11655274 0.36529243 1.5756035
0.1223329 0.36557549 1.5768244
0.12813684 0.36590189 1.5782322
0.13242339 0.36594421 1.5784147
0.13673097 0.36603987 1.5788274
0.14244483 0.36608332 1.5790148
0.1481286 0.36604863 1.5788651
0.15243071 0.36611864 1.5791671
0.15533167 0.36624071 1.5796937
0.16212623 0.36833733 1.5764687
0.1667157 0.36905441 1.5795377
0.088320494 0.37464941 1.5790966
0.092562921 0.37452382 1.5785671
0.096742958 0.37416935 1.5770732
0.10233509 0.37380743 1.5755477
0.092630014 0.37764543 1.5797113
0.096822843 0.37732589 1.5783746
0.10238688 0.37826538 1.5763564
0.096871071 0.38178784 1.5791609
0.10099956 0.3826603 1.5768868
0.098248586 0.38729852 1.5783982
0.10095118 0.38674229 1.5761313
0.096331365 0.39244628 1.5781044
0.092530191 0.39859086 1.5780091
0.095215589 0.39649478 1.575334
0.067066066 0.3296226 1.5817738
0.098365664 0.33216232 1.5802791
0.09846244 0.33534309 1.5818338
0.069927834 0.3482123 1.5819523
0.069967084 0.35269123 1.5828402
0.070034608 0.35731989 1.5843678
0.098444104 0.3552548 1.5815393
0.10281429 0.35841942 1.5829134
0.10719082 0.35873196 1.5842937
0.064167984 0.36361858 1.5806848
0.068574637 0.36144787 1.5836693
0.072719261 0.36074457 1.5805879
0.10840249 0.36086535 1.5811172
0.11274105 0.36105677 1.5819558
0.11843653 0.36387128 1.5817832
0.12292508 0.36448681 1.5844591
0.12724204 0.36456987 1.5848202
0.13153526 0.36458153 1.5848708
0.13724115 0.3645469 1.5847201
0.14294595 0.36451221 1.5845695
0.14725082 0.364553 1.5847467
0.15831612 0.36655173 1.5810351
0.16132441 0.36690596 1.582563
0.17262608 0.37235874 1.581468
0.084275484 0.37709776 1.5833927
0.08842928 0.37796557 1.5810506
0.08848846 0.38250166 1.582113
0.092676193 0.38211131 1.5804989
0.089017682 0.3879678 1.5830655
0.092737846 0.38807243 1.5815504
0.095522165 0.38779151 1.5804062
0.089996263 0.39284083 1.5835191
0.092730276 0.39374632 1.5814213
0.090058886 0.39597321 1.584621
0.067352809 0.35825896 1.5885366
0.10179462 0.35699806 1.5892999
0.11010756 0.35892206 1.5851333
0.062952012 0.36197835 1.5859936
0.15161601 0.36473602 1.5855424
0.15750517 0.36512476 1.5872322
0.16479862 0.36828908 1.5885288
0.078800529 0.37824321 1.5882022
0.081543133 0.37767416 1.5858128
0.083477654 0.38304722 1.5863447
0.082642071 0.38741878 1.5886221
0.084561594 0.39271033 1.5887681
0.087267101 0.39198717 1.5858427
0.087395705 0.3982957 1.5881796
0.090127595 0.39913651 1.58583
0.087494284 0.40304744 1.5899711
0.090196937 0.402307 1.5870501
0.090266377 0.40548229 1.5882719
0.067462385 0.35310072 1.591121
0.10471283 0.35717115 1.5900706
0.10764714 0.35738853 1.5910382
0.064555109 0.36007407 1.590221
0.11767456 0.36306894 1.5907722
0.12340869 0.36305124 1.5906945
0.12770455 0.36302528 1.5905807
0.13199972 0.36299932 1.590467
0.1377257 0.36296469 1.5903152
0.14349321 0.36303723 1.590633
0.14787222 0.36322013 1.5914345
0.15218127 0.36322531 1.5914571
0.15653944 0.36334383 1.5919765
0.076135494 0.37780443 1.5923945
0.077581599 0.38216877 1.5926309
0.079014331 0.38788921 1.5925114
0.079134338 0.39279407 1.5949301
0.081817493 0.39186272 1.5911484
0.082825512 0.39689663 1.5921488
0.083835699 0.40193677 1.5931495
0.084848076 0.40698314 1.5941507
0.087595567 0.40782252 1.5918115
0.064752311 0.35829613 1.5950788
0.099315956 0.35552233 1.5955459
0.10224038 0.3556813 1.5962594
0.10516831 0.35584345 1.5969871
0.11387656 0.36181033 1.5978891
0.11812194 0.36156934 1.5968246
0.12240895 0.36146644 1.5963702
0.12672013 0.36144048 1.5962555
0.13246745 0.36140585 1.5961027
0.13824376 0.36144918 1.5962942
0.14260142 0.361545 1.5967172
0.14687011 0.36141604 1.5961478
0.15267211 0.36151397 1.5965803
0.073592566 0.37950677 1.5995697
0.076335102 0.38455608 1.5965694
0.076421283 0.38787407 1.5983719
0.079257205 0.39772782 1.5974065
0.079380415 0.40267521 1.5998898
0.082064167 0.40456194 1.5959456
0.082126074 0.40774873 1.5971495
0.083582371 0.41215476 1.5974712
0.09971384 0.35405639 1.6019381
0.1271819 0.35986745 1.602074
0.13294601 0.35982114 1.6018679
0.13725276 0.35974669 1.6015365
0.14153624 0.35961801 1.6009636
0.14724299 0.35944653 1.6002003
0.11438321 0.3605243 1.6049982
0.11723519 0.36038965 1.6043988
0.1214956 0.36014861 1.6033257
0.073675811 0.38282529 1.6013789
0.076550946 0.39286602 1.6010838
0.076676384 0.39784917 1.6037074
0.079497769 0.40760738 1.602255
0.079594232 0.41244283 1.6041992
0.082362704 0.41759336 1.6017514
0.1219622 0.35862762 1.609482
0.12773795 0.3585375 1.6090776
0.13346392 0.35832232 1.6081119
0.13774271 0.35813105 1.6072536
0.14060055 0.35802409 1.6067735
0.11152863 0.36065751 1.6055913
0.073891066 0.38684148 1.6060576
0.074050583 0.39058053 1.6095248
0.076747335 0.40111342 1.6051913
0.079655804 0.41565847 1.6054401
0.10907291 0.35921344 1.6121112
0.11337246 0.35901362 1.6112145
0.11766776 0.35881406 1.6103188
0.071345679 0.38293704 1.6140277
0.074117072 0.39383778 1.61097
0.07418368 0.39710087 1.6124177
0.10371532 0.3578909 1.6192875
0.108037 0.35769096 1.6183828
0.11237922 0.35757026 1.6178367
0.11675127 0.35755086 1.617749
0.068660982 0.38128757 1.6193902
0.071394823 0.38028672 1.6151395
0.071438417 0.38780934 1.6161258
0.071551226 0.39280161 1.6186776
0.074424036 0.40130609 1.617642
0.077278696 0.40680671 1.6163049
0.12134532 0.35818797 1.6206316
0.067333415 0.3791272 1.622649
0.067326203 0.38347685 1.6224813
0.068762265 0.38770214 1.6217791
0.068850741 0.39259622 1.6238657
0.071626633 0.39613914 1.6203836
0.1012442 0.35655564 1.6265237
0.066026971 0.38735849 1.626478
0.066144139 0.39245522 1.6293644
0.071879052 0.40046898 1.6260939
0.10445523 0.35750169 1.6308393
0.10757157 0.35808071 1.6334808
0.063414268 0.37016237 1.6347747
0.063293502 0.37681651 1.6316614
0.063237458 0.38236588 1.6302166
0.063272886 0.38699463 1.63113
0.06339696 0.39070219 1.6343285
0.067748874 0.39766622 1.6326628
0.063561261 0.36362839 1.6385641
0.066432461 0.36316288 1.636467
0.057681121 0.36827177 1.6394888
0.06155042 0.36684632 1.6375326
0.057641305 0.37245119 1.638357
0.060514566 0.37194279 1.636121
0.057598755 0.37808388 1.6371477
0.060475845 0.37760526 1.6350741
0.057624888 0.38268834 1.6378905
0.060504779 0.38221312 1.6358565
0.057675544 0.38598248 1.6393303
0.060592506 0.38720143 1.6382283
0.063548096 0.39458933 1.6382246
0.068636864 0.35898343 1.6421098
0.057850827 0.36342186 1.6443124
0.061774954 0.36125937 1.6434761
0.054845072 0.36760938 1.6431426
0.057760134 0.36581418 1.6417346
0.053829242 0.37286237 1.6423407
0.052846611 0.37684917 1.6424972
0.053821284 0.38169527 1.6420945
0.054882806 0.38714629 1.6442732
0.057798237 0.38976759 1.6428176
0.06066002 0.39207086 1.6400536
0.062445961 0.35832494 1.6481601
0.066811137 0.35781077 1.645795
0.053513858 0.36419934 1.6478302
0.056493659 0.36126858 1.6480231
0.0491019 0.36752027 1.6493914
0.051970854 0.36825007 1.6460052
0.049065188 0.37170559 1.6481583
0.04902298 0.37732822 1.6467404
0.049105223 0.38242555 1.6495031
0.051995113 0.38476384 1.6467735
0.052092481 0.38846108 1.6498573
0.054990333 0.39087722 1.6474946
0.057929855 0.39362594 1.6465586
0.060889509 0.39652437 1.6462584
0.052226234 0.35961494 1.6540935
0.056607112 0.35901278 1.6513238
0.062670499 0.35662895 1.6540859
0.068511114 0.35596353 1.6509995
0.049244296 0.36261711 1.6541747
0.052147374 0.36205178 1.6515958
0.047215816 0.36630058 1.6528405
0.046180822 0.37242562 1.6513509
0.043296613 0.37772563 1.6549897
0.046157736 0.37670669 1.6505253
0.04620574 0.38007948 1.6522418
0.049195535 0.38611042 1.6525367
0.064367905 0.35477197 1.6593589
0.067298666 0.35443965 1.6578045
0.052396987 0.35779655 1.6595014
0.056808006 0.35729688 1.6571838
0.043417703 0.36381042 1.6596184
0.047360897 0.36144185 1.6579136
0.042364199 0.36833215 1.6575069
0.042343017 0.37313166 1.6566931
0.040421076 0.37576631 1.6595238
0.043376505 0.38141412 1.6580436
0.04629086 0.38376617 1.6552856
0.049399126 0.39070216 1.6593755
0.052336633 0.3932724 1.6575899
0.070387945 0.35493496 1.6601212
0.047981352 0.35836822 1.6621528
0.057016104 0.35560483 1.6632544
0.061431654 0.35510492 1.6609162
0.042000741 0.36300528 1.6627889
0.040434055 0.36690164 1.6600567
0.037537642 0.37237316 1.6644332
0.037527215 0.37677321 1.6639707
0.040452421 0.37905419 1.6608107
0.04647227 0.38826832 1.6617725
0.058705803 0.3537401 1.6686137
0.042126082 0.35958838 1.6678121
0.048147924 0.35660079 1.6679127
0.052588973 0.3561025 1.6655821
0.040579312 0.36220792 1.6660203
0.037576452 0.36674556 1.6661539
0.043598846 0.38637599 1.6665424
0.052840009 0.35478291 1.6735327
0.055777226 0.35426074 1.6710696
0.042231314 0.35747117 1.6719837
0.037667032 0.36311018 1.6701703
0.034681372 0.36792374 1.6715055
