# .PCD v0.7 - Point Cloud Data file format
VERSION 0.7
FIELDS x y z
SIZE 4 4 4
TYPE F F F
COUNT 1 1 1
WIDTH 1534
HEIGHT 1
VIEWPOINT 0 0 0 1 0 0 0
POINTS 1534
DATA ascii
-1.447675 1.0717189 2.7061741
-1.4427924 1.0717189 2.7061741
-1.563439 1.0692064 2.7121859
-1.5585455 1.0692062 2.7121856
-1.553652 1.0692062 2.7121856
-1.5487586 1.0692062 2.7121856
-1.5438652 1.0692062 2.7121856
-1.5389719 1.0692062 2.7121856
-1.5340785 1.0692062 2.7121856
-1.5291851 1.0692062 2.7121856
-1.5242916 1.0692062 2.7121856
-1.5193983 1.0692062 2.7121856
-1.5145049 1.0692062 2.7121856
-1.5096115 1.0692062 2.7121856
-1.5047181 1.0692062 2.7121856
-1.4998248 1.0692062 2.7121856
-1.4949313 1.0692062 2.7121856
-1.4900378 1.0692061 2.7121854
-1.4851444 1.0692061 2.7121854
-1.4802511 1.0692061 2.7121854
-1.4753577 1.0692061 2.7121854
-1.4704642 1.0692061 2.7121854
-1.4655708 1.0692061 2.7121854
-1.4606775 1.0692061 2.7121854
-1.4557841 1.0692061 2.7121854
-1.4508907 1.0692061 2.7121854
-1.4459972 1.0692061 2.7121854
-1.5669183 1.0666815 2.7182217
-1.562014 1.0666815 2.7182217
-1.5571097 1.0666815 2.7182217
-1.5522054 1.0666815 2.7182217
-1.5473012 1.0666815 2.7182217
-1.5423969 1.0666815 2.7182217
-1.5374925 1.0666814 2.7182214
-1.5325882 1.0666814 2.7182214
-1.5276839 1.0666814 2.7182214
-1.5227796 1.0666814 2.7182214
-1.5178753 1.0666814 2.7182214
-1.512971 1.0666814 2.7182214
-1.5080668 1.0666814 2.7182214
-1.5031625 1.0666814 2.7182214
-1.4982582 1.0666814 2.7182214
-1.493354 1.0666814 2.7182214
-1.4884497 1.0666814 2.7182214
-1.4835454 1.0666814 2.7182214
-1.478641 1.0666814 2.7182214
-1.4737368 1.0666814 2.7182214
-1.4688324 1.0666813 2.7182212
-1.4639281 1.0666813 2.7182212
-1.4590238 1.0666813 2.7182212
-1.4541196 1.0666813 2.7182212
-1.4492153 1.0666813 2.7182212
-1.444311 1.0666813 2.7182212
-1.5704167 1.0641478 2.7242906
-1.5655016 1.0641478 2.7242906
-1.5605863 1.0641478 2.7242906
-1.5556709 1.0641477 2.7242904
-1.5507557 1.0641477 2.7242904
-1.5458405 1.0641477 2.7242904
-1.5409253 1.0641477 2.7242904
-1.53601 1.0641477 2.7242904
-1.5310948 1.0641477 2.7242904
-1.5261796 1.0641477 2.7242904
-1.5212643 1.0641477 2.7242904
-1.5163491 1.0641477 2.7242904
-1.5114338 1.0641477 2.7242904
-1.5065186 1.0641477 2.7242904
-1.5016034 1.0641477 2.7242904
-1.4966881 1.0641477 2.7242904
-1.4917729 1.0641477 2.7242904
-1.4868575 1.0641476 2.7242901
-1.4819423 1.0641476 2.7242901
-1.4770271 1.0641476 2.7242901
-1.4721118 1.0641476 2.7242901
-1.4671966 1.0641476 2.7242901
-1.4622813 1.0641476 2.7242901
-1.4573661 1.0641476 2.7242901
-1.4524509 1.0641476 2.7242901
-1.4475356 1.0641476 2.7242901
-1.4426204 1.0641476 2.7242901
-1.573931 1.061603 2.730387
-1.5690048 1.061603 2.730387
-1.5640786 1.061603 2.730387
-1.5591522 1.061603 2.730387
-1.5542259 1.0616028 2.7303867
-1.5492997 1.0616028 2.7303867
-1.5443735 1.0616028 2.7303867
-1.5394472 1.0616028 2.7303867
-1.534521 1.0616028 2.7303867
-1.5295948 1.0616028 2.7303867
-1.5246686 1.0616028 2.7303867
-1.5197424 1.0616028 2.7303867
-1.514816 1.0616028 2.7303867
-1.5098898 1.0616028 2.7303867
-1.5049636 1.0616028 2.7303867
-1.5000374 1.0616028 2.7303867
-1.4951111 1.0616028 2.7303867
-1.4901849 1.0616028 2.7303867
-1.4852586 1.0616027 2.7303865
-1.4803324 1.0616027 2.7303865
-1.4754061 1.0616027 2.7303865
-1.4704798 1.0616027 2.7303865
-1.4655536 1.0616027 2.7303865
-1.4606274 1.0616027 2.7303865
-1.4557012 1.0616027 2.7303865
-1.4507749 1.0616027 2.7303865
-1.4458487 1.0616027 2.7303865
-1.5774579 1.0590445 2.7365053
-1.5725206 1.0590445 2.7365053
-1.5675833 1.0590445 2.7365053
-1.562646 1.0590445 2.7365053
-1.5577089 1.0590445 2.7365053
-1.5527716 1.0590445 2.7365053
-1.5478343 1.0590445 2.7365053
-1.542897 1.0590445 2.7365053
-1.5379597 1.0590445 2.7365053
-1.5330224 1.0590445 2.7365053
-1.528085 1.0590444 2.736505
-1.5231478 1.0590444 2.736505
-1.5182105 1.0590444 2.736505
-1.5132732 1.0590444 2.736505
-1.5083359 1.0590444 2.736505
-1.5033987 1.0590444 2.736505
-1.4984615 1.0590444 2.736505
-1.4935242 1.0590444 2.736505
-1.4885869 1.0590444 2.736505
-1.4836496 1.0590444 2.736505
-1.4787123 1.0590444 2.736505
-1.473775 1.0590444 2.736505
-1.4688379 1.0590444 2.736505
-1.4639004 1.0590444 2.7365048
-1.4589632 1.0590444 2.7365048
-1.4540259 1.0590444 2.7365048
-1.4490886 1.0590444 2.7365048
-1.4441513 1.0590444 2.7365048
-1.5810022 1.0564756 2.7426538
-1.5760539 1.0564756 2.7426538
-1.5711055 1.0564756 2.7426538
-1.5661571 1.0564756 2.7426538
-1.5612087 1.0564756 2.7426538
-1.5562605 1.0564756 2.7426538
-1.5513121 1.0564756 2.7426538
-1.5463637 1.0564756 2.7426538
-1.5414153 1.0564756 2.7426538
-1.536467 1.0564756 2.7426538
-1.5315186 1.0564756 2.7426538
-1.5265702 1.0564756 2.7426538
-1.5216218 1.0564756 2.7426538
-1.5166733 1.0564755 2.7426536
-1.5117249 1.0564755 2.7426536
-1.5067767 1.0564755 2.7426536
-1.5018283 1.0564755 2.7426536
-1.4968799 1.0564755 2.7426536
-1.4919316 1.0564755 2.7426536
-1.4869832 1.0564755 2.7426536
-1.4820348 1.0564755 2.7426536
-1.4770864 1.0564755 2.7426536
-1.472138 1.0564755 2.7426536
-1.4671898 1.0564755 2.7426536
-1.4622414 1.0564755 2.7426536
-1.457293 1.0564755 2.7426536
-1.4523447 1.0564755 2.7426536
-1.4473962 1.0564755 2.7426534
-1.4424478 1.0564755 2.7426534
-1.5845625 1.0538952 2.7488301
-1.579603 1.0538952 2.7488301
-1.5746435 1.0538952 2.7488301
-1.569684 1.0538952 2.7488301
-1.5647244 1.0538952 2.7488301
-1.559765 1.0538952 2.7488301
-1.5548055 1.0538952 2.7488301
-1.5498458 1.0538951 2.7488298
-1.5448864 1.0538951 2.7488298
-1.5399268 1.0538951 2.7488298
-1.5349673 1.0538951 2.7488298
-1.5300078 1.0538951 2.7488298
-1.5250483 1.0538951 2.7488298
-1.5200888 1.0538951 2.7488298
-1.5151293 1.0538951 2.7488298
-1.5101697 1.0538951 2.7488298
-1.5052103 1.0538951 2.7488298
-1.5002508 1.0538951 2.7488298
-1.4952912 1.0538951 2.7488298
-1.4903318 1.0538951 2.7488298
-1.4853723 1.0538951 2.7488298
-1.4804126 1.0538951 2.7488296
-1.4754531 1.0538951 2.7488296
-1.4704936 1.0538951 2.7488296
-1.4655341 1.0538951 2.7488296
-1.4605746 1.0538951 2.7488296
-1.455615 1.0538951 2.7488296
-1.4506556 1.0538951 2.7488296
-1.4456961 1.0538951 2.7488296
-1.5881386 1.051303 2.7550337
-1.5831679 1.051303 2.7550337
-1.5781972 1.051303 2.7550337
-1.5732266 1.051303 2.7550337
-1.5682558 1.051303 2.7550337
-1.5632851 1.051303 2.7550337
-1.5583143 1.0513029 2.7550335
-1.5533435 1.0513029 2.7550335
-1.5483729 1.0513029 2.7550335
-1.5434022 1.0513029 2.7550335
-1.5384315 1.0513029 2.7550335
-1.5334607 1.0513029 2.7550335
-1.5284901 1.0513029 2.7550335
-1.5235194 1.0513029 2.7550335
-1.5185487 1.0513029 2.7550335
-1.5135779 1.0513029 2.7550335
-1.5086073 1.0513029 2.7550335
-1.5036366 1.0513029 2.7550335
-1.4986659 1.0513029 2.7550335
-1.4936951 1.0513029 2.7550335
-1.4887244 1.0513028 2.7550333
-1.4837537 1.0513028 2.7550333
-1.478783 1.0513028 2.7550333
-1.4738122 1.0513028 2.7550333
-1.4688416 1.0513028 2.7550333
-1.4638709 1.0513028 2.7550333
-1.4589002 1.0513028 2.7550333
-1.4539294 1.0513028 2.7550333
-1.4489588 1.0513028 2.7550333
-1.4439881 1.0513028 2.7550333
-1.591729 1.0486978 2.7612622
-1.5867471 1.0486978 2.7612622
-1.5817652 1.0486978 2.7612622
-1.5767831 1.0486977 2.7612619
-1.5718011 1.0486977 2.7612619
-1.5668192 1.0486977 2.7612619
-1.5618372 1.0486977 2.7612619
-1.5568553 1.0486977 2.7612619
-1.5518733 1.0486977 2.7612619
-1.5468915 1.0486977 2.7612619
-1.5419095 1.0486977 2.7612619
-1.5369276 1.0486977 2.7612619
-1.5319456 1.0486977 2.7612619
-1.5269637 1.0486977 2.7612619
-1.5219817 1.0486977 2.7612619
-1.5169998 1.0486977 2.7612619
-1.5120177 1.0486976 2.7612617
-1.5070359 1.0486976 2.7612617
-1.5020539 1.0486976 2.7612617
-1.497072 1.0486976 2.7612617
-1.49209 1.0486976 2.7612617
-1.4871081 1.0486976 2.7612617
-1.4821261 1.0486976 2.7612617
-1.4771442 1.0486976 2.7612617
-1.4721622 1.0486976 2.7612617
-1.4671804 1.0486976 2.7612617
-1.4621984 1.0486976 2.7612617
-1.4572164 1.0486976 2.7612617
-1.4522345 1.0486976 2.7612617
-1.4472525 1.0486976 2.7612617
-1.4422705 1.0486976 2.7612615
-1.5953416 1.0460846 2.767529
-1.5903451 1.0460826 2.7675235
-1.5853519 1.0460826 2.7675235
-1.5803586 1.0460826 2.7675235
-1.5753654 1.0460826 2.7675235
-1.5703721 1.0460825 2.7675233
-1.5653788 1.0460825 2.7675233
-1.5603856 1.0460825 2.7675233
-1.5553924 1.0460825 2.7675233
-1.5503991 1.0460825 2.7675233
-1.5454059 1.0460825 2.7675233
-1.5404127 1.0460825 2.7675233
-1.5354195 1.0460825 2.7675233
-1.5304261 1.0460825 2.7675233
-1.5254329 1.0460825 2.7675233
-1.5204397 1.0460825 2.7675233
-1.5154464 1.0460825 2.7675233
-1.5104532 1.0460825 2.7675233
-1.5054599 1.0460824 2.7675231
-1.5004666 1.0460824 2.7675231
-1.4954734 1.0460824 2.7675231
-1.4904802 1.0460824 2.7675231
-1.485487 1.0460824 2.7675231
-1.4804937 1.0460824 2.7675231
-1.4755005 1.0460824 2.7675231
-1.4705073 1.0460824 2.7675231
-1.4655141 1.0460824 2.7675231
-1.4605207 1.0460824 2.7675231
-1.4555275 1.0460824 2.7675231
-1.4505343 1.0460824 2.7675231
-1.445541 1.0460824 2.7675231
-1.5989652 1.0434562 2.7738152
-1.5939605 1.0434562 2.7738152
-1.588956 1.0434562 2.7738152
-1.5839514 1.0434562 2.7738152
-1.5789468 1.0434562 2.7738152
-1.5739421 1.0434561 2.7738149
-1.5689375 1.0434561 2.7738149
-1.5639329 1.0434561 2.7738149
-1.5589284 1.0434561 2.7738149
-1.5539237 1.0434561 2.7738149
-1.5489192 1.0434561 2.7738149
-1.5439146 1.0434561 2.7738149
-1.53891 1.0434561 2.7738149
-1.5339054 1.0434561 2.7738149
-1.5289009 1.0434561 2.7738149
-1.5238962 1.0434561 2.7738149
-1.5188917 1.0434561 2.7738149
-1.513887 1.0434561 2.7738149
-1.5088824 1.043456 2.7738147
-1.5038778 1.043456 2.7738147
-1.4988732 1.043456 2.7738147
-1.4938686 1.043456 2.7738147
-1.4888641 1.043456 2.7738147
-1.4838594 1.043456 2.7738147
-1.4788549 1.043456 2.7738147
-1.4738503 1.043456 2.7738147
-1.4688457 1.043456 2.7738147
-1.4638411 1.043456 2.7738147
-1.4588366 1.043456 2.7738147
-1.4538319 1.043456 2.7738147
-1.4488274 1.043456 2.7738147
-1.4438227 1.043456 2.7738147
-1.6026063 1.0408163 2.7801316
-1.5975903 1.0408163 2.7801316
-1.5925741 1.0408162 2.7801313
-1.5875582 1.0408162 2.7801313
-1.5825422 1.0408162 2.7801313
-1.5775262 1.0408162 2.7801313
-1.5725102 1.0408162 2.7801313
-1.5674943 1.0408162 2.7801313
-1.5624783 1.0408162 2.7801313
-1.5574623 1.0408162 2.7801313
-1.5524464 1.0408162 2.7801313
-1.5474303 1.0408162 2.7801313
-1.5424143 1.0408162 2.7801313
-1.5373983 1.0408162 2.7801313
-1.5323824 1.0408162 2.7801313
-1.5273663 1.0408161 2.7801311
-1.5223503 1.0408161 2.7801311
-1.5173343 1.0408161 2.7801311
-1.5123184 1.0408161 2.7801311
-1.5073024 1.0408161 2.7801311
-1.5022863 1.0408161 2.7801311
-1.4972703 1.0408161 2.7801311
-1.4922544 1.0408161 2.7801311
-1.4872384 1.0408161 2.7801311
-1.4822224 1.0408161 2.7801311
-1.4772065 1.0408161 2.7801311
-1.4721905 1.0408161 2.7801311
-1.4671745 1.0408161 2.7801311
-1.4621586 1.0408161 2.7801311
-1.4571424 1.0408159 2.7801309
-1.4521264 1.0408159 2.7801309
-1.4471104 1.0408159 2.7801309
-1.4420944 1.0408159 2.7801309
-1.6062632 1.0381638 2.7864754
-1.6012357 1.0381638 2.7864754
-1.5962083 1.0381638 2.7864754
-1.5911809 1.0381638 2.7864754
-1.5861533 1.0381638 2.7864752
-1.5811259 1.0381638 2.7864752
-1.5760984 1.0381638 2.7864752
-1.571071 1.0381638 2.7864752
-1.5660436 1.0381638 2.7864752
-1.5610162 1.0381638 2.7864752
-1.5559888 1.0381638 2.7864752
-1.5509614 1.0381638 2.7864752
-1.545934 1.0381638 2.7864752
-1.5409064 1.0381638 2.7864752
-1.535879 1.0381638 2.7864752
-1.5308516 1.0381638 2.7864752
-1.5258242 1.0381638 2.7864752
-1.5207967 1.0381637 2.7864749
-1.5157692 1.0381637 2.7864749
-1.5107418 1.0381637 2.7864749
-1.5057143 1.0381637 2.7864749
-1.5006869 1.0381637 2.7864749
-1.4956595 1.0381637 2.7864749
-1.4906321 1.0381637 2.7864749
-1.4856046 1.0381637 2.7864749
-1.4805772 1.0381637 2.7864749
-1.4755498 1.0381637 2.7864749
-1.4705224 1.0381637 2.7864749
-1.465495 1.0381637 2.7864749
-1.4604675 1.0381637 2.7864749
-1.45544 1.0381637 2.7864749
-1.4504125 1.0381635 2.7864747
-1.4453851 1.0381635 2.7864747
-1.6099391 1.0355006 2.7928522
-1.6049001 1.0355006 2.7928522
-1.5998611 1.0355006 2.7928522
-1.5948223 1.0355006 2.7928522
-1.5897833 1.0355006 2.7928522
-1.5847443 1.0355006 2.7928522
-1.5797055 1.0355006 2.7928522
-1.5746665 1.0355006 2.7928522
-1.5696275 1.0355006 2.7928522
-1.5645887 1.0355006 2.7928522
-1.5595497 1.0355006 2.7928522
-1.5545106 1.0355006 2.7928519
-1.5494717 1.0355006 2.7928519
-1.5444328 1.0355006 2.7928519
-1.5393939 1.0355006 2.7928519
-1.5343549 1.0355006 2.7928519
-1.5293159 1.0355006 2.7928519
-1.5242771 1.0355006 2.7928519
-1.5192381 1.0355006 2.7928519
-1.5141991 1.0355006 2.7928519
-1.5091603 1.0355006 2.7928519
-1.5041213 1.0355006 2.7928519
-1.4990824 1.0355006 2.7928519
-1.4940435 1.0355006 2.7928519
-1.4890045 1.0355006 2.7928519
-1.4839655 1.0355005 2.7928517
-1.4789265 1.0355005 2.7928517
-1.4738876 1.0355005 2.7928517
-1.4688487 1.0355005 2.7928517
-1.4638097 1.0355005 2.7928517
-1.4587708 1.0355005 2.7928517
-1.4537319 1.0355005 2.7928517
-1.4486929 1.0355005 2.7928517
-1.4436541 1.0355005 2.7928517
-1.6136309 1.0328248 2.7992566
-1.6085804 1.0328248 2.7992566
-1.6035299 1.0328248 2.7992566
-1.5984794 1.0328248 2.7992566
-1.5934289 1.0328248 2.7992566
-1.5883784 1.0328248 2.7992566
-1.5833279 1.0328248 2.7992566
-1.5782775 1.0328248 2.7992566
-1.5732269 1.0328248 2.7992566
-1.5681765 1.0328248 2.7992566
-1.5631258 1.0328246 2.7992563
-1.5580753 1.0328246 2.7992563
-1.5530249 1.0328246 2.7992563
-1.5479743 1.0328246 2.7992563
-1.5429239 1.0328246 2.7992563
-1.5378734 1.0328246 2.7992563
-1.532823 1.0328246 2.7992563
-1.5277724 1.0328246 2.7992563
-1.5227219 1.0328246 2.7992563
-1.5176715 1.0328246 2.7992563
-1.5126209 1.0328246 2.7992563
-1.5075705 1.0328246 2.7992563
-1.50252 1.0328246 2.7992563
-1.4974694 1.0328246 2.7992561
-1.4924189 1.0328246 2.7992561
-1.4873685 1.0328246 2.7992561
-1.4823179 1.0328246 2.7992561
-1.4772674 1.0328246 2.7992561
-1.472217 1.0328246 2.7992561
-1.4671664 1.0328246 2.7992561
-1.462116 1.0328246 2.7992561
-1.4570655 1.0328246 2.7992561
-1.452015 1.0328246 2.7992561
-1.4469645 1.0328246 2.7992561
-1.6173353 1.0301337 2.8056829
-1.6122732 1.0301337 2.8056829
-1.6072143 1.0301358 2.8056884
-1.6021522 1.0301358 2.8056884
-1.5970901 1.0301358 2.8056884
-1.592028 1.0301358 2.8056884
-1.5869659 1.0301358 2.8056884
-1.5819038 1.0301358 2.8056884
-1.5768417 1.0301358 2.8056884
-1.5717796 1.0301358 2.8056884
-1.5667175 1.0301358 2.8056884
-1.5616554 1.0301358 2.8056884
-1.5565932 1.0301356 2.8056881
-1.5515312 1.0301356 2.8056881
-1.5464691 1.0301356 2.8056881
-1.541407 1.0301356 2.8056881
-1.5363449 1.0301356 2.8056881
-1.5312828 1.0301356 2.8056881
-1.5262207 1.0301356 2.8056881
-1.5211586 1.0301356 2.8056881
-1.5160965 1.0301356 2.8056881
-1.5110344 1.0301356 2.8056881
-1.5059723 1.0301356 2.8056881
-1.5009103 1.0301356 2.8056881
-1.4958482 1.0301356 2.8056881
-1.4907861 1.0301356 2.8056881
-1.4857239 1.0301356 2.8056879
-1.4806617 1.0301356 2.8056879
-1.4755996 1.0301356 2.8056879
-1.4705375 1.0301356 2.8056879
-1.4654754 1.0301356 2.8056879
-1.4604133 1.0301356 2.8056879
-1.4553512 1.0301356 2.8056879
-1.4502891 1.0301356 2.8056879
-1.4452271 1.0301356 2.8056879
-1.6210653 1.0274357 2.8121533
-1.6159915 1.0274357 2.8121533
-1.6109177 1.0274357 2.8121533
-1.6058439 1.0274357 2.8121533
-1.6007701 1.0274357 2.8121533
-1.5956964 1.0274357 2.8121533
-1.5906227 1.0274357 2.8121533
-1.5855488 1.0274357 2.8121531
-1.5804781 1.0274376 2.8121586
-1.5754043 1.0274376 2.8121586
-1.5703306 1.0274376 2.8121586
-1.5652568 1.0274376 2.8121586
-1.560183 1.0274376 2.8121586
-1.5551093 1.0274376 2.8121586
-1.5500355 1.0274376 2.8121586
-1.5449617 1.0274376 2.8121586
-1.539888 1.0274376 2.8121586
-1.5348142 1.0274376 2.8121586
-1.5297405 1.0274376 2.8121586
-1.5246667 1.0274376 2.8121586
-1.5195899 1.0274357 2.8121531
-1.5145161 1.0274355 2.8121529
-1.5094423 1.0274355 2.8121529
-1.5043685 1.0274355 2.8121529
-1.4992948 1.0274355 2.8121529
-1.4942211 1.0274355 2.8121529
-1.4891473 1.0274355 2.8121529
-1.4840735 1.0274355 2.8121529
-1.4789997 1.0274355 2.8121529
-1.4739261 1.0274355 2.8121529
-1.4688523 1.0274355 2.8121529
-1.4637785 1.0274355 2.8121529
-1.4587047 1.0274355 2.8121529
-1.453631 1.0274355 2.8121529
-1.4485571 1.0274354 2.8121526
-1.4434834 1.0274354 2.8121526
-1.624806 1.0247213 2.8186429
-1.6197206 1.0247213 2.8186429
-1.6146351 1.0247213 2.8186429
-1.6095496 1.0247213 2.8186429
-1.6044642 1.0247213 2.8186429
-1.5993787 1.0247213 2.8186429
-1.5942932 1.0247213 2.8186429
-1.5892078 1.0247213 2.8186429
-1.5841223 1.0247213 2.8186429
-1.579037 1.0247213 2.8186429
-1.5739515 1.0247213 2.8186429
-1.568866 1.0247213 2.8186429
-1.5637805 1.0247213 2.8186429
-1.5586981 1.0247232 2.8186483
-1.5536125 1.0247231 2.8186481
-1.548527 1.0247231 2.8186481
-1.5434415 1.0247231 2.8186481
-1.5383561 1.0247231 2.8186481
-1.5332706 1.0247231 2.8186481
-1.5281851 1.0247231 2.8186481
-1.5230997 1.0247231 2.8186481
-1.5180142 1.0247231 2.8186481
-1.5129286 1.0247231 2.8186481
-1.5078431 1.0247231 2.8186481
-1.5027577 1.0247231 2.8186481
-1.4976722 1.0247231 2.8186481
-1.4925867 1.0247231 2.8186481
-1.4875011 1.0247231 2.8186479
-1.4824157 1.0247231 2.8186479
-1.4773302 1.0247231 2.8186479
-1.4722447 1.0247231 2.8186479
-1.4671593 1.0247231 2.8186479
-1.4620738 1.0247231 2.8186479
-1.4569883 1.0247231 2.8186479
-1.4519029 1.0247231 2.8186479
-1.4468174 1.0247231 2.8186479
-1.6285677 1.0219964 2.8251684
-1.6234704 1.0219964 2.8251684
-1.6183733 1.0219964 2.8251684
-1.613276 1.0219964 2.8251684
-1.6081786 1.0219963 2.8251681
-1.6030813 1.0219963 2.8251681
-1.5979842 1.0219963 2.8251681
-1.5928869 1.0219963 2.8251681
-1.5877897 1.0219963 2.8251681
-1.5826924 1.0219963 2.8251681
-1.5775952 1.0219963 2.8251681
-1.572498 1.0219963 2.8251681
-1.5674007 1.0219963 2.8251681
-1.5623034 1.0219963 2.8251681
-1.5572063 1.0219963 2.8251681
-1.552109 1.0219963 2.8251681
-1.5470117 1.0219963 2.8251681
-1.5419146 1.0219963 2.8251681
-1.5368172 1.0219961 2.8251679
-1.5317215 1.0219972 2.8251708
-1.5266242 1.0219972 2.8251708
-1.5215269 1.0219972 2.8251708
-1.5164298 1.0219972 2.8251708
-1.5113325 1.0219972 2.8251708
-1.5062352 1.0219972 2.8251708
-1.5011379 1.0219971 2.8251705
-1.4960407 1.0219971 2.8251705
-1.4909434 1.0219971 2.8251705
-1.4858462 1.0219971 2.8251705
-1.4807489 1.0219971 2.8251705
-1.4756516 1.0219971 2.8251705
-1.4705545 1.0219971 2.8251705
-1.4654572 1.0219971 2.8251705
-1.4603599 1.0219971 2.8251705
-1.4552627 1.0219971 2.8251705
-1.4501655 1.0219971 2.8251705
-1.4450682 1.0219971 2.8251705
-1.632345 1.0192577 2.8317211
-1.627236 1.0192577 2.8317211
-1.6221269 1.0192577 2.8317211
-1.6170179 1.0192577 2.8317211
-1.6119088 1.0192577 2.8317211
-1.6067997 1.0192577 2.8317211
-1.6016906 1.0192577 2.8317211
-1.5965816 1.0192577 2.8317211
-1.5914725 1.0192577 2.8317211
-1.5863634 1.0192577 2.8317211
-1.5812544 1.0192577 2.8317211
-1.5761453 1.0192577 2.8317211
-1.5710363 1.0192577 2.8317211
-1.5659273 1.0192577 2.8317211
-1.5608181 1.0192575 2.8317208
-1.555709 1.0192575 2.8317208
-1.5505999 1.0192575 2.8317208
-1.5454909 1.0192575 2.8317208
-1.5403818 1.0192575 2.8317208
-1.5352727 1.0192575 2.8317208
-1.5301636 1.0192575 2.8317208
-1.5250546 1.0192575 2.8317208
-1.5199455 1.0192575 2.8317208
-1.5148364 1.0192575 2.8317208
-1.5097275 1.0192575 2.8317208
-1.5046197 1.0192585 2.8317235
-1.4995106 1.0192585 2.8317235
-1.4944016 1.0192585 2.8317235
-1.4892925 1.0192585 2.8317235
-1.4841835 1.0192585 2.8317235
-1.4790745 1.0192585 2.8317235
-1.4739654 1.0192585 2.8317235
-1.4688563 1.0192585 2.8317235
-1.4637473 1.0192585 2.8317235
-1.4586381 1.0192585 2.8317232
-1.453529 1.0192585 2.8317232
-1.4484199 1.0192585 2.8317232
-1.4433109 1.0192585 2.8317232
-1.6361399 1.0165063 2.8383043
-1.631019 1.0165063 2.8383043
-1.625898 1.0165063 2.8383043
-1.6207771 1.0165063 2.8383043
-1.6156561 1.0165063 2.8383043
-1.6105353 1.0165063 2.8383043
-1.6054143 1.0165063 2.8383043
-1.6002933 1.0165063 2.8383043
-1.5951723 1.0165062 2.838304
-1.5900513 1.0165062 2.838304
-1.5849304 1.0165062 2.838304
-1.5798094 1.0165062 2.838304
-1.5746886 1.0165062 2.838304
-1.5695676 1.0165062 2.838304
-1.5644467 1.0165062 2.838304
-1.5593257 1.0165062 2.838304
-1.5542047 1.0165062 2.838304
-1.5490838 1.0165062 2.838304
-1.5439628 1.0165062 2.838304
-1.538842 1.0165062 2.838304
-1.533721 1.0165062 2.838304
-1.5286 1.0165062 2.8383038
-1.523479 1.0165062 2.8383038
-1.5183581 1.0165062 2.8383038
-1.5132371 1.0165062 2.8383038
-1.5081161 1.0165062 2.8383038
-1.5029953 1.0165062 2.8383038
-1.4978743 1.0165062 2.8383038
-1.4927534 1.0165062 2.8383038
-1.4876324 1.0165062 2.8383038
-1.4825128 1.0165071 2.8383064
-1.477392 1.0165071 2.8383064
-1.472271 1.0165071 2.8383064
-1.4671501 1.0165071 2.8383064
-1.4620291 1.0165071 2.8383064
-1.4569081 1.0165071 2.8383064
-1.4517872 1.0165071 2.8383064
-1.4466662 1.0165071 2.8383064
-1.6399537 1.0137429 2.8449204
-1.6348209 1.0137429 2.8449204
-1.629688 1.0137429 2.8449204
-1.6245551 1.0137429 2.8449204
-1.6194223 1.0137429 2.8449204
-1.6142894 1.0137429 2.8449204
-1.6091565 1.0137429 2.8449204
-1.6040236 1.0137429 2.8449204
-1.5988907 1.0137428 2.8449202
-1.5937577 1.0137428 2.8449202
-1.5886248 1.0137428 2.8449202
-1.583492 1.0137428 2.8449202
-1.5783591 1.0137428 2.8449202
-1.5732262 1.0137428 2.8449202
-1.5680934 1.0137428 2.8449202
-1.5629605 1.0137428 2.8449202
-1.5578276 1.0137428 2.8449202
-1.5526948 1.0137428 2.8449202
-1.5475619 1.0137428 2.8449202
-1.542429 1.0137428 2.8449202
-1.5372962 1.0137428 2.8449202
-1.5321631 1.0137428 2.8449199
-1.5270302 1.0137428 2.8449199
-1.5218973 1.0137428 2.8449199
-1.5167645 1.0137428 2.8449199
-1.5116316 1.0137428 2.8449199
-1.5064987 1.0137428 2.8449199
-1.5013659 1.0137428 2.8449199
-1.496233 1.0137428 2.8449199
-1.4911001 1.0137428 2.8449199
-1.4859673 1.0137428 2.8449199
-1.4808344 1.0137428 2.8449199
-1.4757015 1.0137428 2.8449199
-1.4705687 1.0137428 2.8449199
-1.4654356 1.0137427 2.8449197
-1.4603027 1.0137427 2.8449197
-1.4551727 1.0137446 2.8449252
-1.4500397 1.0137446 2.8449252
-1.4449069 1.0137446 2.8449252
-1.6437835 1.0109653 2.8515639
-1.6386386 1.0109653 2.8515639
-1.6334937 1.0109653 2.8515639
-1.6283488 1.0109653 2.8515639
-1.623204 1.0109653 2.8515639
-1.6180592 1.0109653 2.8515639
-1.6129142 1.0109653 2.8515639
-1.6077694 1.0109653 2.8515639
-1.6026245 1.0109653 2.8515639
-1.5974797 1.0109653 2.8515639
-1.5923347 1.0109653 2.8515639
-1.5871899 1.0109653 2.8515639
-1.582045 1.0109653 2.8515637
-1.5769001 1.0109653 2.8515637
-1.5717552 1.0109653 2.8515637
-1.5666103 1.0109653 2.8515637
-1.5614655 1.0109653 2.8515637
-1.5563207 1.0109653 2.8515637
-1.5511758 1.0109653 2.8515637
-1.5460309 1.0109653 2.8515637
-1.540886 1.0109653 2.8515637
-1.5357412 1.0109653 2.8515637
-1.5305964 1.0109653 2.8515637
-1.5254514 1.0109653 2.8515637
-1.5203066 1.0109653 2.8515637
-1.5151616 1.0109652 2.8515635
-1.5100168 1.0109652 2.8515635
-1.5048718 1.0109652 2.8515635
-1.499727 1.0109652 2.8515635
-1.4945822 1.0109652 2.8515635
-1.4894373 1.0109652 2.8515635
-1.4842925 1.0109652 2.8515635
-1.4791476 1.0109652 2.8515635
-1.4740027 1.0109652 2.8515635
-1.4688579 1.0109652 2.8515635
-1.463713 1.0109652 2.8515635
-1.4585681 1.0109652 2.8515635
-1.4534233 1.0109652 2.8515635
-1.4482783 1.0109651 2.8515632
-1.4431335 1.0109651 2.8515632
-1.6476338 1.0081766 2.8582435
-1.6424769 1.0081766 2.8582435
-1.6373199 1.0081764 2.8582432
-1.6321629 1.0081764 2.8582432
-1.6270061 1.0081764 2.8582432
-1.6218492 1.0081764 2.8582432
-1.6166922 1.0081764 2.8582432
-1.6115353 1.0081764 2.8582432
-1.6063784 1.0081764 2.8582432
-1.6012214 1.0081764 2.8582432
-1.5960646 1.0081764 2.8582432
-1.5909077 1.0081764 2.8582432
-1.5857507 1.0081764 2.8582432
-1.5805938 1.0081764 2.8582432
-1.5754369 1.0081764 2.8582432
-1.5702798 1.0081764 2.858243
-1.565123 1.0081764 2.858243
-1.5599661 1.0081764 2.858243
-1.5548091 1.0081764 2.858243
-1.5496522 1.0081764 2.858243
-1.5444953 1.0081764 2.858243
-1.5393384 1.0081764 2.858243
-1.5341815 1.0081764 2.858243
-1.5290246 1.0081764 2.858243
-1.5238677 1.0081764 2.858243
-1.5187107 1.0081764 2.858243
-1.5135539 1.0081764 2.858243
-1.508397 1.0081764 2.858243
-1.5032399 1.0081763 2.8582428
-1.498083 1.0081763 2.8582428
-1.4929261 1.0081763 2.8582428
-1.4877691 1.0081763 2.8582428
-1.4826123 1.0081763 2.8582428
-1.4774554 1.0081763 2.8582428
-1.4722984 1.0081763 2.8582428
-1.4671415 1.0081763 2.8582428
-1.4619846 1.0081763 2.8582428
-1.4568276 1.0081763 2.8582428
-1.4516708 1.0081763 2.8582428
-1.446511 1.0081744 2.8582373
-1.6515 1.0053732 2.8649502
-1.646331 1.0053732 2.8649502
-1.6411619 1.0053732 2.8649502
-1.6359929 1.0053732 2.8649502
-1.6308239 1.0053732 2.8649502
-1.6256548 1.0053732 2.8649502
-1.6204859 1.0053732 2.8649502
-1.6153169 1.0053732 2.8649502
-1.6101478 1.0053732 2.8649502
-1.6049787 1.0053731 2.8649499
-1.5998096 1.0053731 2.8649499
-1.5946406 1.0053731 2.8649499
-1.5894716 1.0053731 2.8649499
-1.5843027 1.0053731 2.8649499
-1.5791336 1.0053731 2.8649499
-1.5739646 1.0053731 2.8649499
-1.5687956 1.0053731 2.8649499
-1.5636265 1.0053731 2.8649499
-1.5584575 1.0053731 2.8649499
-1.5532886 1.0053731 2.8649499
-1.5481195 1.0053731 2.8649499
-1.5429505 1.0053731 2.8649499
-1.5377815 1.0053731 2.8649499
-1.5326123 1.005373 2.8649497
-1.5274433 1.005373 2.8649497
-1.5222744 1.005373 2.8649497
-1.5171053 1.005373 2.8649497
-1.5119363 1.005373 2.8649497
-1.5067673 1.005373 2.8649497
-1.5015982 1.005373 2.8649497
-1.4964292 1.005373 2.8649497
-1.4912603 1.005373 2.8649497
-1.4860913 1.005373 2.8649497
-1.4809222 1.005373 2.8649497
-1.4757532 1.005373 2.8649497
-1.4705842 1.005373 2.8649497
-1.4654151 1.005373 2.8649495
-1.4602461 1.005373 2.8649495
-1.4550771 1.005373 2.8649495
-1.449908 1.005373 2.8649495
-1.444739 1.005373 2.8649495
-1.6553851 1.0025572 2.87169
-1.6502039 1.0025572 2.87169
-1.6450227 1.0025572 2.87169
-1.6398416 1.0025572 2.87169
-1.6346604 1.0025572 2.87169
-1.6294793 1.0025572 2.87169
-1.6242981 1.0025572 2.87169
-1.6191169 1.0025572 2.87169
-1.6139357 1.0025572 2.87169
-1.6087544 1.0025572 2.8716898
-1.6035732 1.0025572 2.8716898
-1.598392 1.0025572 2.8716898
-1.5932109 1.0025572 2.8716898
-1.5880297 1.0025572 2.8716898
-1.5828485 1.0025572 2.8716898
-1.5776674 1.0025572 2.8716898
-1.5724862 1.0025572 2.8716898
-1.567305 1.0025572 2.8716898
-1.5621239 1.0025572 2.8716898
-1.5569427 1.0025572 2.8716898
-1.5517615 1.0025572 2.8716898
-1.5465803 1.0025572 2.8716898
-1.541399 1.002557 2.8716896
-1.5362178 1.002557 2.8716896
-1.5310367 1.002557 2.8716896
-1.5258555 1.002557 2.8716896
-1.5206743 1.002557 2.8716896
-1.5154932 1.002557 2.8716896
-1.510312 1.002557 2.8716896
-1.5051308 1.002557 2.8716896
-1.4999497 1.002557 2.8716896
-1.4947685 1.002557 2.8716896
-1.4895873 1.002557 2.8716896
-1.4844061 1.002557 2.8716896
-1.4792249 1.002557 2.8716896
-1.4740436 1.0025569 2.8716893
-1.4688625 1.0025569 2.8716893
-1.4636813 1.0025569 2.8716893
-1.4585001 1.0025569 2.8716893
-1.453319 1.0025569 2.8716893
-1.4481378 1.0025569 2.8716893
-1.4429566 1.0025569 2.8716893
-1.6592878 0.99972737 2.8784602
-1.6540943 0.99972737 2.8784602
-1.648901 0.99972737 2.8784602
-1.6437076 0.99972737 2.8784602
-1.6385142 0.99972737 2.8784602
-1.6333208 0.99972737 2.8784602
-1.6281275 0.99972737 2.8784602
-1.6229339 0.99972731 2.8784599
-1.6177405 0.99972731 2.8784599
-1.6125472 0.99972731 2.8784599
-1.6073537 0.99972731 2.8784599
-1.6021603 0.99972731 2.8784599
-1.596967 0.99972731 2.8784599
-1.5917736 0.99972731 2.8784599
-1.5865802 0.99972731 2.8784599
-1.5813868 0.99972731 2.8784599
-1.5761935 0.99972731 2.8784599
-1.571 0.99972731 2.8784599
-1.5658066 0.99972731 2.8784599
-1.5606133 0.99972731 2.8784599
-1.5554197 0.99972719 2.8784597
-1.5502263 0.99972719 2.8784597
-1.545033 0.99972719 2.8784597
-1.5398395 0.99972719 2.8784597
-1.5346462 0.99972719 2.8784597
-1.5294528 0.99972719 2.8784597
-1.5242594 0.99972719 2.8784597
-1.519066 0.99972719 2.8784597
-1.5138726 0.99972719 2.8784597
-1.5086793 0.99972719 2.8784597
-1.5034858 0.99972719 2.8784597
-1.4982924 0.99972719 2.8784597
-1.4930991 0.99972719 2.8784597
-1.4879056 0.99972719 2.8784597
-1.4827121 0.99972713 2.8784595
-1.4775188 0.99972713 2.8784595
-1.4723254 0.99972713 2.8784595
-1.467132 0.99972713 2.8784595
-1.4619386 0.99972713 2.8784595
-1.4567453 0.99972713 2.8784595
-1.4515518 0.99972713 2.8784595
-1.4463584 0.99972713 2.8784595
-1.6632125 0.99688637 2.8852687
-1.6580069 0.99688637 2.8852687
-1.6528012 0.99688637 2.8852687
-1.6475955 0.99688637 2.8852687
-1.6423899 0.99688637 2.8852687
-1.6371841 0.99688637 2.8852687
-1.6319785 0.99688637 2.8852687
-1.6267728 0.99688637 2.8852687
-1.6215671 0.99688637 2.8852687
-1.6163615 0.99688637 2.8852687
-1.6111557 0.99688637 2.8852687
-1.6059501 0.99688637 2.8852687
-1.6007444 0.99688631 2.8852684
-1.5955386 0.99688631 2.8852684
-1.590333 0.99688631 2.8852684
-1.5851274 0.99688631 2.8852684
-1.5799216 0.99688631 2.8852684
-1.574716 0.99688631 2.8852684
-1.5695103 0.99688631 2.8852684
-1.5643046 0.99688631 2.8852684
-1.559099 0.99688631 2.8852684
-1.5538932 0.99688631 2.8852684
-1.5486876 0.99688631 2.8852684
-1.5434819 0.99688631 2.8852684
-1.5382762 0.99688631 2.8852684
-1.5330704 0.99688619 2.8852682
-1.5278648 0.99688619 2.8852682
-1.5226591 0.99688619 2.8852682
-1.5174534 0.99688619 2.8852682
-1.5122478 0.99688619 2.8852682
-1.5070421 0.99688619 2.8852682
-1.5018364 0.99688619 2.8852682
-1.4966308 0.99688619 2.8852682
-1.491425 0.99688619 2.8852682
-1.4862194 0.99688619 2.8852682
-1.4810138 0.99688619 2.8852682
-1.475808 0.99688619 2.8852682
-1.4706024 0.99688619 2.8852682
-1.4653966 0.99688613 2.885268
-1.4601909 0.99688613 2.885268
-1.4549853 0.99688613 2.885268
-1.4497796 0.99688613 2.885268
-1.4445739 0.99688613 2.885268
-1.66715 0.99402845 2.8920994
-1.6619321 0.99402845 2.8920994
-1.6567141 0.99402845 2.8920994
-1.6514961 0.99402845 2.8920994
-1.6462781 0.99402845 2.8920994
-1.6410601 0.99402845 2.8920994
-1.635842 0.99402839 2.8920991
-1.6306239 0.99402839 2.8920991
-1.625406 0.99402839 2.8920991
-1.620188 0.99402839 2.8920991
-1.61497 0.99402839 2.8920991
-1.6097519 0.99402839 2.8920991
-1.604534 0.99402839 2.8920991
-1.599316 0.99402839 2.8920991
-1.594098 0.99402839 2.8920991
-1.5888799 0.99402839 2.8920991
-1.583662 0.99402839 2.8920991
-1.578444 0.99402839 2.8920991
-1.573226 0.99402839 2.8920991
-1.5680078 0.99402827 2.8920989
-1.5627899 0.99402827 2.8920989
-1.5575719 0.99402827 2.8920989
-1.5523539 0.99402827 2.8920989
-1.5471359 0.99402827 2.8920989
-1.5419179 0.99402827 2.8920989
-1.5366999 0.99402827 2.8920989
-1.5314819 0.99402827 2.8920989
-1.526264 0.99402827 2.8920989
-1.5210459 0.99402827 2.8920989
-1.5158279 0.99402827 2.8920989
-1.5106099 0.99402827 2.8920989
-1.505392 0.99402827 2.8920989
-1.5001738 0.99402821 2.8920987
-1.4949558 0.99402821 2.8920987
-1.4897377 0.99402821 2.8920987
-1.4845198 0.99402821 2.8920987
-1.4793018 0.99402821 2.8920987
-1.4740838 0.99402821 2.8920987
-1.4688659 0.99402821 2.8920987
-1.4636478 0.99402821 2.8920987
-1.4584298 0.99402821 2.8920987
-1.4532118 0.99402821 2.8920987
-1.4479939 0.99402821 2.8920987
-1.4427758 0.99402821 2.8920987
-1.6711081 0.99115801 2.8989656
-1.6658777 0.99115801 2.8989656
-1.6606474 0.99115801 2.8989656
-1.655417 0.99115801 2.8989656
-1.6501865 0.99115801 2.8989656
-1.6449562 0.99115801 2.8989656
-1.6397258 0.99115801 2.8989656
-1.6344954 0.99115801 2.8989656
-1.6292651 0.99115801 2.8989656
-1.6240346 0.99115801 2.8989656
-1.6188042 0.99115801 2.8989656
-1.6135739 0.99115801 2.8989656
-1.6083435 0.99115801 2.8989656
-1.6031129 0.99115795 2.8989654
-1.5978826 0.99115795 2.8989654
-1.5926522 0.99115795 2.8989654
-1.5874218 0.99115795 2.8989654
-1.5821915 0.99115795 2.8989654
-1.576961 0.99115795 2.8989654
-1.5717306 0.99115795 2.8989654
-1.5665003 0.99115795 2.8989654
-1.5612699 0.99115795 2.8989654
-1.5560395 0.99115795 2.8989654
-1.5508091 0.99115795 2.8989654
-1.5455787 0.99115795 2.8989654
-1.5403483 0.99115795 2.8989654
-1.5351179 0.99115783 2.8989651
-1.5298874 0.99115783 2.8989651
-1.524657 0.99115783 2.8989651
-1.5194267 0.99115783 2.8989651
-1.5141963 0.99115783 2.8989651
-1.508966 0.99115783 2.8989651
-1.5037355 0.99115783 2.8989651
-1.4985051 0.99115783 2.8989651
-1.4932748 0.99115783 2.8989651
-1.4880444 0.99115783 2.8989651
-1.482814 0.99115783 2.8989651
-1.4775836 0.99115783 2.8989651
-1.4723532 0.99115783 2.8989651
-1.4671227 0.99115777 2.8989649
-1.4618924 0.99115777 2.8989649
-1.4566619 0.99115777 2.8989649
-1.4514315 0.99115777 2.8989649
-1.4462012 0.99115777 2.8989649
-1.6750884 0.98827595 2.9058704
-1.6698456 0.98827595 2.9058704
-1.6646028 0.98827595 2.9058704
-1.6593598 0.98827595 2.9058704
-1.654117 0.98827595 2.9058704
-1.6488742 0.98827595 2.9058704
-1.6436313 0.98827595 2.9058704
-1.6383885 0.98827595 2.9058704
-1.6331457 0.98827595 2.9058704
-1.6279029 0.98827595 2.9058704
-1.6226599 0.98827595 2.9058704
-1.6174171 0.98827595 2.9058704
-1.6121743 0.98827595 2.9058704
-1.6069313 0.98827589 2.9058702
-1.6016885 0.98827589 2.9058702
-1.5964457 0.98827589 2.9058702
-1.5912027 0.98827589 2.9058702
-1.5859599 0.98827589 2.9058702
-1.5807171 0.98827589 2.9058702
-1.5754743 0.98827589 2.9058702
-1.5702314 0.98827589 2.9058702
-1.5649886 0.98827589 2.9058702
-1.5597457 0.98827589 2.9058702
-1.5545028 0.98827589 2.9058702
-1.54926 0.98827589 2.9058702
-1.5440172 0.98827589 2.9058702
-1.5387743 0.98827577 2.90587
-1.5335314 0.98827577 2.90587
-1.5282885 0.98827577 2.90587
-1.5230457 0.98827577 2.90587
-1.5178028 0.98827577 2.90587
-1.51256 0.98827577 2.90587
-1.5073172 0.98827577 2.90587
-1.5020744 0.98827577 2.90587
-1.4968315 0.98827577 2.90587
-1.4915886 0.98827577 2.90587
-1.4863458 0.98827577 2.90587
-1.4811029 0.98827577 2.90587
-1.4758601 0.98827577 2.90587
-1.4706172 0.98827571 2.9058697
-1.4653744 0.98827571 2.9058697
-1.4601315 0.98827571 2.9058697
-1.4548886 0.98827571 2.9058697
-1.4496458 0.98827571 2.9058697
-1.4444029 0.98827571 2.9058697
-1.6790862 0.98537922 2.9128056
-1.6738307 0.98537922 2.9128056
-1.6685754 0.98537922 2.9128056
-1.6633201 0.98537922 2.9128056
-1.6580647 0.98537922 2.9128056
-1.6528094 0.98537922 2.9128056
-1.647554 0.98537922 2.9128056
-1.6422987 0.98537922 2.9128056
-1.6370434 0.98537922 2.9128056
-1.6317879 0.98537922 2.9128056
-1.6265326 0.98537922 2.9128056
-1.6212772 0.98537922 2.9128056
-1.6160218 0.9853791 2.9128053
-1.6107664 0.9853791 2.9128053
-1.6055111 0.9853791 2.9128053
-1.6002543 0.98537821 2.9128027
-1.5949988 0.98537821 2.9128027
-1.5897435 0.98537821 2.9128027
-1.584488 0.98537815 2.9128025
-1.5792327 0.98537815 2.9128025
-1.5739774 0.98537815 2.9128025
-1.568722 0.98537815 2.9128025
-1.5634667 0.98537815 2.9128025
-1.5582113 0.98537815 2.9128025
-1.5529575 0.9853791 2.9128053
-1.547702 0.98537904 2.9128051
-1.5424466 0.98537904 2.9128051
-1.5371913 0.98537904 2.9128051
-1.5319359 0.98537904 2.9128051
-1.5266806 0.98537904 2.9128051
-1.5214252 0.98537904 2.9128051
-1.5161699 0.98537904 2.9128051
-1.5109146 0.98537904 2.9128051
-1.5056592 0.98537904 2.9128051
-1.5004038 0.98537904 2.9128051
-1.4951484 0.98537904 2.9128051
-1.4898931 0.98537904 2.9128051
-1.4846377 0.98537904 2.9128051
-1.4793823 0.98537898 2.9128048
-1.4741269 0.98537898 2.9128048
-1.4688716 0.98537898 2.9128048
-1.4636163 0.98537898 2.9128048
-1.4583609 0.98537898 2.9128048
-1.4531054 0.98537898 2.9128048
-1.4478501 0.98537898 2.9128048
-1.4425948 0.98537898 2.9128048
-1.6830999 0.98246676 2.9197683
-1.6778319 0.98246676 2.9197683
-1.6725639 0.98246664 2.9197681
-1.6672959 0.98246664 2.9197681
-1.6620281 0.98246664 2.9197681
-1.6567601 0.98246664 2.9197681
-1.6514922 0.98246664 2.9197681
-1.6462243 0.98246664 2.9197681
-1.6409564 0.98246664 2.9197681
-1.6356884 0.98246664 2.9197681
-1.6304206 0.98246664 2.9197681
-1.6251526 0.98246664 2.9197681
-1.6198847 0.98246664 2.9197681
-1.6146168 0.98246664 2.9197681
-1.6093488 0.98246658 2.9197679
-1.6040808 0.98246658 2.9197679
-1.5988129 0.98246658 2.9197679
-1.593545 0.98246658 2.9197679
-1.5882771 0.98246658 2.9197679
-1.5830091 0.98246658 2.9197679
-1.5777413 0.98246658 2.9197679
-1.5724733 0.98246658 2.9197679
-1.5672054 0.98246658 2.9197679
-1.5619375 0.98246658 2.9197679
-1.5566696 0.98246658 2.9197679
-1.5514016 0.98246658 2.9197679
-1.5461338 0.98246658 2.9197679
-1.5408657 0.98246652 2.9197676
-1.5355978 0.98246652 2.9197676
-1.5303298 0.98246652 2.9197676
-1.525062 0.98246652 2.9197676
-1.519794 0.98246652 2.9197676
-1.5145261 0.98246652 2.9197676
-1.5092582 0.98246652 2.9197676
-1.5039903 0.98246652 2.9197676
-1.4987223 0.98246652 2.9197676
-1.4934545 0.98246652 2.9197676
-1.4881865 0.98246652 2.9197676
-1.4829186 0.98246652 2.9197676
-1.4776506 0.98246652 2.9197676
-1.4723827 0.9824664 2.9197674
-1.4671147 0.9824664 2.9197674
-1.4618468 0.9824664 2.9197674
-1.4565789 0.9824664 2.9197674
-1.451311 0.9824664 2.9197674
-1.446043 0.9824664 2.9197674
-1.6871371 0.97954285 2.9267721
-1.6818566 0.97954285 2.9267721
-1.676576 0.97954285 2.9267721
-1.6712955 0.97954285 2.9267721
-1.6660148 0.97954279 2.9267719
-1.6607343 0.97954279 2.9267719
-1.6554537 0.97954279 2.9267719
-1.6501732 0.97954279 2.9267719
-1.6448926 0.97954279 2.9267719
-1.6396121 0.97954279 2.9267719
-1.6343315 0.97954279 2.9267719
-1.629051 0.97954279 2.9267719
-1.6237704 0.97954279 2.9267719
-1.6184928 0.97954464 2.9267774
-1.6132123 0.97954464 2.9267774
-1.6079317 0.97954464 2.9267774
-1.6026511 0.97954464 2.9267774
-1.5973706 0.97954464 2.9267774
-1.5920899 0.97954452 2.9267771
-1.5868094 0.97954452 2.9267771
-1.5815288 0.97954452 2.9267771
-1.5762482 0.97954452 2.9267771
-1.5709677 0.97954452 2.9267771
-1.5656871 0.97954452 2.9267771
-1.5604066 0.97954452 2.9267771
-1.555126 0.97954452 2.9267771
-1.5498455 0.97954452 2.9267771
-1.5445648 0.97954452 2.9267771
-1.5392842 0.97954452 2.9267771
-1.5340037 0.97954452 2.9267771
-1.5287231 0.97954452 2.9267771
-1.5234425 0.97954446 2.9267769
-1.5181619 0.97954446 2.9267769
-1.5128813 0.97954446 2.9267769
-1.5076008 0.97954446 2.9267769
-1.5023202 0.97954446 2.9267769
-1.4970397 0.97954446 2.9267769
-1.4917591 0.97954446 2.9267769
-1.4864786 0.97954446 2.9267769
-1.481198 0.97954446 2.9267769
-1.4759173 0.97954446 2.9267769
-1.4706368 0.97954446 2.9267769
-1.4653562 0.97954446 2.9267769
-1.4600757 0.97954446 2.9267769
-1.454795 0.9795444 2.9267766
-1.4495145 0.9795444 2.9267766
-1.4442339 0.9795444 2.9267766
-1.6911935 0.9766047 2.9338088
-1.6859002 0.9766047 2.9338088
-1.680607 0.9766047 2.9338088
-1.6753137 0.9766047 2.9338088
-1.6700205 0.9766047 2.9338088
-1.6647272 0.9766047 2.9338088
-1.659434 0.9766047 2.9338088
-1.6541407 0.9766047 2.9338088
-1.6488475 0.9766047 2.9338088
-1.6435542 0.9766047 2.9338088
-1.638261 0.9766047 2.9338088
-1.6329677 0.9766047 2.9338088
-1.6276743 0.97660458 2.9338086
-1.6223811 0.97660458 2.9338086
-1.6170878 0.97660458 2.9338086
-1.6117946 0.97660458 2.9338086
-1.6065013 0.97660458 2.9338086
-1.6012081 0.97660458 2.9338086
-1.5959148 0.97660458 2.9338086
-1.5906186 0.97660279 2.9338031
-1.5853254 0.97660279 2.9338031
-1.5800321 0.97660279 2.9338031
-1.5747389 0.97660279 2.9338031
-1.5694456 0.97660279 2.9338031
-1.5641522 0.97660267 2.9338028
-1.558859 0.97660267 2.9338028
-1.5535659 0.97660267 2.9338028
-1.5482726 0.97660267 2.9338028
-1.5429794 0.97660267 2.9338028
-1.5376861 0.97660267 2.9338028
-1.5323929 0.97660267 2.9338028
-1.5270996 0.97660267 2.9338028
-1.5218064 0.97660267 2.9338028
-1.5165131 0.97660267 2.9338028
-1.5112199 0.97660267 2.9338028
-1.5059266 0.97660267 2.9338028
-1.5006334 0.97660267 2.9338028
-1.49534 0.97660261 2.9338026
-1.4900469 0.97660261 2.9338026
-1.4847536 0.97660261 2.9338026
-1.4794604 0.97660261 2.9338026
-1.4741671 0.97660261 2.9338026
-1.4688753 0.97660357 2.9338055
-1.463582 0.97660357 2.9338055
-1.4582887 0.97660351 2.9338052
-1.4529954 0.97660351 2.9338052
-1.4477022 0.97660351 2.9338052
-1.4424089 0.97660351 2.9338052
-1.6952626 0.97364843 2.9408677
-1.6899565 0.97364843 2.9408677
-1.6846538 0.97365028 2.9408731
-1.6793478 0.97365028 2.9408731
-1.6740417 0.97365028 2.9408731
-1.6687357 0.97365028 2.9408731
-1.6634297 0.97365028 2.9408731
-1.6581237 0.97365028 2.9408731
-1.6528177 0.97365028 2.9408731
-1.6475117 0.97365028 2.9408731
-1.6422057 0.97365028 2.9408731
-1.6368997 0.97365028 2.9408731
-1.6315936 0.97365016 2.9408729
-1.6262876 0.97365016 2.9408729
-1.6209816 0.97365016 2.9408729
-1.6156757 0.97365016 2.9408729
-1.6103697 0.97365016 2.9408729
-1.6050637 0.97365016 2.9408729
-1.5997577 0.97365016 2.9408729
-1.5944517 0.97365016 2.9408729
-1.5891457 0.97365016 2.9408729
-1.5838397 0.97365016 2.9408729
-1.5785336 0.97365016 2.9408729
-1.5732276 0.97365016 2.9408729
-1.5679216 0.97365016 2.9408729
-1.5626155 0.9736501 2.9408727
-1.5573095 0.9736501 2.9408727
-1.5520036 0.9736501 2.9408727
-1.5466976 0.9736501 2.9408727
-1.5413916 0.9736501 2.9408727
-1.5360856 0.9736501 2.9408727
-1.5307796 0.9736501 2.9408727
-1.5254736 0.9736501 2.9408727
-1.5201676 0.9736501 2.9408727
-1.5148616 0.9736501 2.9408727
-1.5095556 0.9736501 2.9408727
-1.5042496 0.9736501 2.9408727
-1.4989434 0.97365004 2.9408724
-1.4936374 0.97365004 2.9408724
-1.4883316 0.97365004 2.9408724
-1.4830256 0.97365004 2.9408724
-1.4777195 0.97365004 2.9408724
-1.4724135 0.97365004 2.9408724
-1.4671075 0.97365004 2.9408724
-1.4618015 0.97365004 2.9408724
-1.4564955 0.97365004 2.9408724
-1.4511895 0.97365004 2.9408724
-1.4458835 0.97365004 2.9408724
-1.6993603 0.97068304 2.9479761
-1.6940414 0.97068304 2.9479761
-1.6887226 0.97068304 2.9479761
-1.6834037 0.97068304 2.9479761
-1.678085 0.97068304 2.9479761
-1.672766 0.97068298 2.9479759
-1.6674472 0.97068298 2.9479759
-1.6621284 0.97068298 2.9479759
-1.6568096 0.97068298 2.9479759
-1.6514908 0.97068298 2.9479759
-1.6461719 0.97068298 2.9479759
-1.6408532 0.97068298 2.9479759
-1.6355343 0.97068298 2.9479759
-1.6302155 0.97068298 2.9479759
-1.6248968 0.97068298 2.9479759
-1.6195779 0.97068298 2.9479759
-1.6142591 0.97068298 2.9479759
-1.6089401 0.97068292 2.9479756
-1.6036214 0.97068292 2.9479756
-1.5983025 0.97068292 2.9479756
-1.5929837 0.97068292 2.9479756
-1.587665 0.97068292 2.9479756
-1.5823461 0.97068292 2.9479756
-1.5770273 0.97068292 2.9479756
-1.5717084 0.97068292 2.9479756
-1.5663897 0.97068292 2.9479756
-1.5610709 0.97068292 2.9479756
-1.555752 0.97068292 2.9479756
-1.5504333 0.97068292 2.9479756
-1.5451144 0.97068292 2.9479756
-1.5397955 0.9706828 2.9479754
-1.5344782 0.97068375 2.9479783
-1.5291593 0.97068375 2.9479783
-1.5238405 0.97068375 2.9479783
-1.5185218 0.97068375 2.9479783
-1.5132029 0.97068375 2.9479783
-1.5078841 0.97068375 2.9479783
-1.5025651 0.97068369 2.947978
-1.4972464 0.97068369 2.947978
-1.4919275 0.97068369 2.947978
-1.4866087 0.97068369 2.947978
-1.4812899 0.97068369 2.947978
-1.4759711 0.97068369 2.947978
-1.4706522 0.97068369 2.947978
-1.4653335 0.97068369 2.947978
-1.4600147 0.97068369 2.947978
-1.4546958 0.97068369 2.947978
-1.4493771 0.97068369 2.947978
-1.4440582 0.97068369 2.947978
-1.7034752 0.96770185 2.9551146
-1.6981435 0.96770185 2.9551146
-1.6928118 0.96770185 2.9551146
-1.6874801 0.96770185 2.9551146
-1.6821485 0.96770185 2.9551146
-1.6768167 0.96770185 2.9551146
-1.6714851 0.96770185 2.9551146
-1.6661533 0.96770185 2.9551146
-1.6608217 0.96770185 2.9551146
-1.6554898 0.96770179 2.9551144
-1.6501582 0.96770179 2.9551144
-1.6448264 0.96770179 2.9551144
-1.6394948 0.96770179 2.9551144
-1.634163 0.96770179 2.9551144
-1.6288314 0.96770179 2.9551144
-1.6234998 0.96770179 2.9551144
-1.618168 0.96770179 2.9551144
-1.6128364 0.96770179 2.9551144
-1.6075046 0.96770179 2.9551144
-1.602173 0.96770179 2.9551144
-1.5968412 0.96770179 2.9551144
-1.5915096 0.96770179 2.9551144
-1.5861777 0.96770173 2.9551141
-1.5808461 0.96770173 2.9551141
-1.575513 0.96770084 2.9551115
-1.5701813 0.96770084 2.9551115
-1.5648496 0.96770084 2.9551115
-1.5595179 0.96770084 2.9551115
-1.5541861 0.96770078 2.9551113
-1.5488544 0.96770078 2.9551113
-1.5435227 0.96770078 2.9551113
-1.5381911 0.96770078 2.9551113
-1.5328593 0.96770078 2.9551113
-1.5275277 0.96770078 2.9551113
-1.5221959 0.96770078 2.9551113
-1.5168643 0.96770078 2.9551113
-1.5115327 0.96770078 2.9551113
-1.5062009 0.96770078 2.9551113
-1.5008693 0.96770078 2.9551113
-1.4955375 0.96770078 2.9551113
-1.4902059 0.96770078 2.9551113
-1.4848741 0.96770072 2.955111
-1.4795424 0.96770072 2.955111
-1.4742107 0.96770072 2.955111
-1.468879 0.96770072 2.955111
-1.4635473 0.96770072 2.955111
-1.4582156 0.96770072 2.955111
-1.452884 0.96770072 2.955111
-1.4475523 0.96770072 2.955111
-1.4422206 0.96770072 2.955111
-1.7076076 0.96470475 2.9622834
-1.702263 0.96470475 2.9622834
-1.6969184 0.96470475 2.9622834
-1.6915737 0.96470475 2.9622834
-1.6862291 0.96470475 2.9622834
-1.6808845 0.96470475 2.9622834
-1.6755399 0.96470475 2.9622834
-1.6701952 0.96470475 2.9622834
-1.6648506 0.96470475 2.9622834
-1.659506 0.96470475 2.9622834
-1.6541613 0.96470475 2.9622834
-1.6488167 0.96470475 2.9622834
-1.643472 0.96470469 2.9622831
-1.6381273 0.96470469 2.9622831
-1.6327827 0.96470469 2.9622831
-1.6274381 0.96470469 2.9622831
-1.6220936 0.96470469 2.9622831
-1.6167489 0.96470469 2.9622831
-1.6114043 0.96470469 2.9622831
-1.6060597 0.96470469 2.9622831
-1.6007165 0.96470553 2.9622858
-1.5953718 0.96470553 2.9622858
-1.5900272 0.96470553 2.9622858
-1.5846826 0.96470553 2.9622858
-1.579338 0.96470553 2.9622858
-1.5739933 0.96470553 2.9622858
-1.5686487 0.96470553 2.9622858
-1.5633041 0.96470553 2.9622858
-1.5579594 0.96470553 2.9622858
-1.5526148 0.96470553 2.9622858
-1.5472702 0.96470553 2.9622858
-1.5419255 0.96470553 2.9622858
-1.5365808 0.96470547 2.9622855
-1.5312362 0.96470547 2.9622855
-1.5258915 0.96470547 2.9622855
-1.5205469 0.96470547 2.9622855
-1.5152023 0.96470547 2.9622855
-1.5098577 0.96470547 2.9622855
-1.504513 0.96470547 2.9622855
-1.4991684 0.96470547 2.9622855
-1.4938238 0.96470547 2.9622855
-1.4884791 0.96470547 2.9622855
-1.4831345 0.96470547 2.9622855
-1.4777899 0.96470547 2.9622855
-1.4724451 0.96470541 2.9622853
-1.4671005 0.96470541 2.9622853
-1.4617559 0.96470541 2.9622853
-1.4564112 0.96470541 2.9622853
-1.4510666 0.96470541 2.9622853
-1.445722 0.96470541 2.9622853
-1.7117623 0.9616943 2.9694908
-1.7064047 0.9616943 2.9694908
-1.7010471 0.9616943 2.9694908
-1.6956894 0.9616943 2.9694908
-1.6903318 0.9616943 2.9694908
-1.6849742 0.9616943 2.9694908
-1.6796166 0.9616943 2.9694908
-1.6742589 0.9616943 2.9694908
-1.6689012 0.96169424 2.9694905
-1.6635436 0.96169424 2.9694905
-1.658186 0.96169424 2.9694905
-1.6528283 0.96169424 2.9694905
-1.6474706 0.96169424 2.9694905
-1.642113 0.96169424 2.9694905
-1.6367553 0.96169424 2.9694905
-1.6313977 0.96169424 2.9694905
-1.6260401 0.96169424 2.9694905
-1.6206825 0.96169424 2.9694905
-1.6153249 0.96169424 2.9694905
-1.6099672 0.96169424 2.9694905
-1.6046096 0.96169424 2.9694905
-1.5992519 0.96169418 2.9694903
-1.5938942 0.96169418 2.9694903
-1.5885366 0.96169418 2.9694903
-1.583179 0.96169418 2.9694903
-1.5778214 0.96169418 2.9694903
-1.5724638 0.96169418 2.9694903
-1.5671061 0.96169418 2.9694903
-1.5617485 0.96169418 2.9694903
-1.5563909 0.96169418 2.9694903
-1.5510333 0.96169418 2.9694903
-1.5456756 0.96169418 2.9694903
-1.540318 0.96169418 2.9694903
-1.5349604 0.96169418 2.9694903
-1.5296026 0.96169412 2.9694901
-1.5242449 0.96169412 2.9694901
-1.5188873 0.96169412 2.9694901
-1.5135297 0.96169412 2.9694901
-1.508172 0.96169412 2.9694901
-1.5028144 0.96169412 2.9694901
-1.4974568 0.96169412 2.9694901
-1.4920992 0.96169412 2.9694901
-1.4867415 0.96169412 2.9694901
-1.4813839 0.96169412 2.9694901
-1.4760263 0.96169412 2.9694901
-1.4706687 0.96169412 2.9694901
-1.4653111 0.96169412 2.9694901
-1.4599533 0.961694 2.9694898
-1.4545957 0.961694 2.9694898
-1.4492395 0.96169496 2.9694927
-1.4438819 0.96169496 2.9694927
-1.7159359 0.95866847 2.9767311
-1.7105653 0.95866847 2.9767311
-1.7051946 0.95866847 2.9767311
-1.699824 0.95866847 2.9767311
-1.6944532 0.95866847 2.9767311
-1.6890825 0.95866847 2.9767311
-1.6837119 0.95866847 2.9767311
-1.6783412 0.95866847 2.9767311
