# .PCD v0.7 - Point Cloud Data file format
VERSION 0.7
FIELDS x y z
SIZE 4 4 4
TYPE F F F
COUNT 1 1 1
WIDTH 1491
HEIGHT 1
VIEWPOINT 0 0 0 1 0 0 0
POINTS 1491
DATA ascii
-0.033170689 0.45510185 1.4708008
-0.03050597 0.46024224 1.4702675
-0.030536365 0.46335614 1.4717325
-0.027872344 0.46852082 1.471274
-0.02522243 0.47391617 1.4715421
-0.022548471 0.47617063 1.4703053
0.027907059 0.40797463 1.4731065
0.033224013 0.40799087 1.4731652
0.025262218 0.40818426 1.4738635
0.030567652 0.4080117 1.4732404
0.035888519 0.40806574 1.4734355
0.038555335 0.40815476 1.4737569
0.0066483542 0.41086832 1.4739527
0.0093029644 0.41065943 1.4732033
0.011954875 0.4104507 1.4724545
-0.0093037738 0.41335338 1.4733316
-0.0066421754 0.41314331 1.4725827
-0.019942716 0.41613802 1.4737792
-0.025243031 0.41850287 1.472744
0.09967801 0.42396381 1.4732535
0.10232331 0.4265686 1.4730694
0.10500906 0.42934087 1.4734625
-0.035872903 0.45306146 1.4727944
-0.033202335 0.45819223 1.472204
-0.03323517 0.46130416 1.4736599
-0.030566821 0.46647626 1.4732003
-0.027901094 0.47166136 1.4727917
0.019964375 0.40860417 1.4753797
0.022614658 0.4083941 1.4746212
0.041223314 0.40824381 1.4740784
0.043892462 0.40833291 1.4744002
0.046562772 0.40842205 1.474722
0.049234245 0.40851119 1.4750439
0.051906895 0.40860042 1.4753661
0.054580703 0.40868965 1.4756883
0.0013310252 0.41128677 1.4754539
0.0039910432 0.41107744 1.474703
-0.0146351 0.41377419 1.4748315
-0.011968081 0.4135637 1.4740812
0.097140305 0.42182845 1.4750813
0.099859864 0.42207438 1.4759413
0.10250122 0.42464793 1.4756308
0.10515842 0.42728928 1.4755582
0.10783085 0.43265465 1.4756976
0.10773557 0.4349325 1.4743937
0.10773318 0.43758294 1.4743611
-0.035907175 0.45615411 1.4742014
-0.035941511 0.45925266 1.4756112
-0.033268362 0.46442634 1.4751316
-0.030597335 0.46960258 1.474671
-0.027936909 0.47492746 1.4746822
0.011997137 0.40923569 1.4776599
0.014655617 0.40902495 1.476899
0.017311361 0.40881446 1.4761389
0.057255682 0.40877894 1.4760107
-0.0066653085 0.41191608 1.4777114
-0.0039971466 0.41170609 1.4769582
-0.0013317033 0.41149631 1.4762056
-0.017322162 0.41439942 1.47706
-0.022636112 0.41677076 1.4760201
-0.027975371 0.41963059 1.4767125
0.09193904 0.41972169 1.4770331
0.1079286 0.43038192 1.4770353
0.10790436 0.4409425 1.4767036
0.10796925 0.44387355 1.4775916
0.10799468 0.44664463 1.4779396
-0.030658569 0.47320837 1.4776223
0.0040052361 0.40986913 1.4799472
0.0066719502 0.40965775 1.4791839
0.0093359165 0.40944663 1.4784216
-0.012009806 0.41233668 1.4792203
-0.0093361931 0.41212624 1.4784654
0.086721644 0.4175981 1.4789501
0.094715193 0.42021528 1.4787701
0.097439773 0.4204593 1.4796288
0.10012935 0.42054328 1.4799243
0.10268171 0.4227286 1.478229
0.10533357 0.42533427 1.4780158
0.108027 0.42810699 1.478382
0.11077287 0.43641841 1.4794309
0.10802012 0.44941702 1.4782878
-0.036027256 0.46301699 1.4791316
-0.033348911 0.46821868 1.4787031
0.017374653 0.40763608 1.4815358
-0.0013364578 0.41029254 1.4814759
0.0013357679 0.41008073 1.4807112
-0.014689914 0.41265306 1.4803553
-0.020037044 0.41543472 1.4807501
-0.025401501 0.41845632 1.4819896
0.089495257 0.41808978 1.4806916
0.10289203 0.42092195 1.481257
0.10551231 0.42338488 1.4805239
0.10818966 0.42608029 1.4806081
0.11096314 0.42914659 1.481972
0.11087646 0.43148309 1.4808145
0.11081954 0.43393195 1.4800543
0.11094948 0.43978769 1.4817896
0.014709226 0.40784672 1.4823014
0.020060794 0.40790284 1.4825053
0.0093701016 0.40826872 1.4838351
0.012041044 0.40805763 1.4830679
-0.0093697235 0.41092929 1.4837751
-0.0066891988 0.4107168 1.4830079
-0.0040114452 0.41050455 1.4822415
0.092275411 0.41858268 1.4824371
0.095044218 0.41899773 1.4839071
0.10572878 0.42157677 1.4835613
0.10835583 0.42405924 1.4828821
0.11108445 0.42693904 1.4835923
-0.033431321 0.47205022 1.4823573
0.004019917 0.40869159 1.4853719
0.0066963937 0.40848002 1.484603
-0.012061692 0.41143772 1.485611
0.084404081 0.41666141 1.4851224
0.087039344 0.41644976 1.4843681
0.09774109 0.41908166 1.4842043
0.10043905 0.41916564 1.4845017
0.10313808 0.41924962 1.4847991
0.10856376 0.42219239 1.4857277
0.11124443 0.42487326 1.4857287
0.1139273 0.43292373 1.4857585
0.11386862 0.43538001 1.4849933
0.11112665 0.44316775 1.4841559
-0.036157053 0.46736339 1.4844605
-0.0040261722 0.40932751 1.4876832
-0.0013413616 0.40911528 1.4869119
0.0013406667 0.40890333 1.4861416
0.022795761 0.40898278 1.4864303
0.025490368 0.40918747 1.4871743
0.028172111 0.4091664 1.4870976
0.030853579 0.4091453 1.487021
0.033534769 0.4091242 1.4869443
0.036215685 0.40910313 1.4868677
0.038896322 0.40908203 1.486791
0.041576687 0.40906096 1.4867145
-0.017427664 0.41424218 1.4860561
0.079181172 0.41737872 1.4876792
0.081794873 0.41701978 1.4863998
0.089823507 0.41694194 1.4861224
0.092614256 0.41743526 1.4878807
0.10594612 0.41976121 1.486611
0.11138512 0.42272666 1.4876078
0.11404483 0.42800355 1.4872913
0.11398602 0.43046486 1.4865245
0.11401565 0.43862492 1.4869108
0.11130439 0.44655859 1.4865297
-0.006716813 0.40972558 1.48913
0.095338978 0.41761157 1.4885092
0.098044276 0.41769549 1.4888083
0.10075067 0.41777945 1.4891075
0.10345814 0.41786343 1.4894068
0.10616671 0.41794744 1.4897063
0.10876814 0.42030159 1.4885248
0.11414229 0.42568359 1.4885623
0.11419835 0.44201478 1.4892935
0.0013456014 0.40771723 1.4916118
0.0040347059 0.4075053 1.4908365
0.0067210165 0.40729362 1.490062
0.0094127525 0.40743771 1.4905891
-0.014804916 0.41319174 1.4919443
0.10897331 0.41840369 1.4913325
0.1115758 0.42076176 1.4901545
0.11428693 0.42353392 1.4904486
0.11708944 0.42932796 1.4918936
0.11704677 0.43186224 1.4913499
0.11699857 0.434374 1.4907358
-0.0013465522 0.4080053 1.4926656
-0.0094223451 0.41054502 1.4921082
0.082199253 0.41638637 1.4937482
0.084875226 0.41629279 1.4934125
0.087549999 0.41619924 1.4930769
0.090223581 0.41610578 1.4927416
0.092922889 0.41613296 1.4928391
0.09562666 0.41617802 1.4930007
0.098328896 0.41621411 1.4931302
0.1010316 0.4162502 1.4932597
0.10373477 0.41628626 1.4933891
0.10643841 0.41632235 1.4935186
0.1117865 0.41886267 1.4929684
0.11443193 0.42137876 1.4923396
0.11721335 0.42439315 1.4934723
0.11713216 0.42679188 1.4924378
0.11712749 0.43754521 1.4923784
0.11445924 0.44571775 1.4926958
-0.0040477547 0.40882322 1.495658
0.012134325 0.40852228 1.494557
0.079553835 0.41664636 1.4946809
0.10918368 0.41651553 1.4942116
0.11199798 0.41695634 1.4957929
0.11460586 0.41932264 1.4946079
0.11734883 0.42218602 1.4951986
0.11740695 0.4412882 1.4959391
0.093180187 0.41458434 1.4969727
0.09587051 0.41453871 1.4968079
0.09857966 0.41457474 1.4969381
0.10128927 0.41461077 1.4970682
0.10399937 0.41464683 1.4971983
0.10670993 0.41468287 1.4973285
0.10942096 0.41471893 1.4974587
0.11482292 0.41741508 1.4974387
0.11749819 0.42002225 1.4971017
0.12023932 0.42556614 1.4976002
0.12019534 0.42811146 1.4970523
0.12015137 0.43065491 1.4965048
0.12013787 0.43330625 1.4963366
0.014870426 0.40961263 1.498546
0.082526729 0.41533944 1.4996992
0.085213289 0.41524571 1.4993608
0.087898642 0.41515204 1.4990226
0.090547934 0.41489875 1.498108
0.11221936 0.4150764 1.4987495
0.11765408 0.41787484 1.4990879
0.12031643 0.42313531 1.4985605
0.12036749 0.43683931 1.4991965
0.093471922 0.41317299 1.5016595
0.09614262 0.41300705 1.5010563
0.098831847 0.4129276 1.5007676
0.10154828 0.41296303 1.5008963
0.10426532 0.412999 1.5010271
0.10698283 0.41303498 1.5011579
0.10970082 0.41307101 1.5012888
0.11245047 0.41322163 1.5018362
0.11504081 0.41550031 1.5002801
0.11787758 0.41595882 1.5019357
0.077223368 0.41863194 1.501804
0.12058409 0.41865709 1.5018942
0.12044355 0.42087579 1.5001439
0.12327752 0.42943925 1.5016954
0.090835474 0.41350478 1.5028653
0.11527351 0.41362849 1.503315
0.12073825 0.41647914 1.5038145
0.12344073 0.42186886 1.5036836
0.12336806 0.4243319 1.5027984
0.12332278 0.42688653 1.5022467
0.12338531 0.43252653 1.5030085
0.12069673 0.44074652 1.5032973
0.096424215 0.41150051 1.5054528
0.099121265 0.41142115 1.5051624
0.10181727 0.41134176 1.504872
0.10453264 0.41134271 1.5048754
0.10725715 0.41137868 1.505007
0.10998213 0.41141462 1.5051385
0.11270759 0.41145059 1.5052701
0.08819478 0.41383705 1.5040729
0.085549839 0.41416985 1.5052825
0.11810213 0.41403618 1.5047967
0.080124095 0.41691691 1.5053952
0.1235716 0.41960025 1.5052778
0.093769446 0.41177019 1.5064393
0.11551166 0.41176507 1.5064206
0.091124833 0.41210186 1.5076528
0.11834635 0.41217175 1.5079085
0.12095065 0.41449377 1.5064598
0.12370275 0.41732687 1.5068754
0.126472 0.42565304 1.5074773
0.12363724 0.43612698 1.5060774
0.099412367 0.40990579 1.5095828
0.10211624 0.40982652 1.5092908
0.10481906 0.40974724 1.5089989
0.10753287 0.40971383 1.5088758
0.11026487 0.40974975 1.509008
0.11299737 0.40978563 1.5091403
0.11575078 0.40989393 1.5095391
0.088475958 0.41243407 1.5088681
0.12118664 0.41257924 1.5093992
0.083031468 0.41515735 1.5088716
0.12384844 0.4150964 1.5086501
0.12658645 0.42059371 1.5088416
0.12651861 0.42308909 1.5080329
0.12654711 0.42862731 1.5083727
0.12666184 0.43173984 1.5097402
0.09406887 0.4103584 1.5112497
0.096717417 0.41002735 1.5100305
0.11859158 0.4102996 1.5110331
0.12404228 0.4130199 1.5110114
0.12672113 0.41831598 1.5104469
0.10241697 0.40830234 1.5137357
0.10512769 0.40822312 1.513442
0.10783737 0.40814397 1.5131485
0.11054908 0.40807626 1.5128975
0.11328864 0.40811211 1.5130304
0.11602868 0.40814796 1.5131633
0.091416046 0.41069001 1.5124708
0.12143801 0.4107061 1.5125301
0.085935913 0.41331083 1.5120757
0.12699132 0.41374594 1.5136675
0.12685609 0.41603342 1.5120555
0.12969115 0.42183757 1.5133039
0.12973155 0.42470014 1.5137752
0.097026996 0.40860665 1.5148638
0.099705197 0.40838155 1.5140294
0.11883783 0.40841967 1.5141706
0.12169042 0.40882513 1.5156739
0.088836066 0.41137931 1.5150094
0.12429009 0.41111335 1.51403
0.12715265 0.41153708 1.5155904
0.12989236 0.41702285 1.5156516
0.12975384 0.41930979 1.5140353
0.1298496 0.42782024 1.5151526
0.12715261 0.43614712 1.51559
0.10543814 0.40668997 1.5179113
0.10815576 0.40661091 1.5176162
0.11087231 0.40653181 1.517321
0.11358781 0.40645278 1.5170259
0.11632857 0.40646571 1.5170742
0.1190851 0.4065319 1.5173213
0.091747493 0.40944031 1.5179546
0.094370216 0.4089376 1.5160909
0.12454869 0.40923139 1.5171801
0.18485942 0.41216806 1.5179142
0.083477132 0.41464871 1.5169703
0.13003117 0.414731 1.5172713
0.12996785 0.43094605 1.5165325
0.18510006 0.40173569 1.5198901
0.18772449 0.40148374 1.5189369
0.19051285 0.40158466 1.5193186
0.18502009 0.40430316 1.5192333
0.18769298 0.40415642 1.518682
0.19043346 0.40415734 1.5186855
0.19326547 0.40434971 1.5194083
0.097338557 0.40717676 1.5197282
0.099999748 0.40684831 1.5185022
0.10271948 0.40676913 1.5182067
0.12194388 0.40693632 1.5188308
0.18232192 0.40713996 1.5195907
0.18494017 0.4068684 1.5185772
0.18766148 0.40682819 1.5184271
0.19040151 0.40682912 1.5184306
0.19314155 0.40683007 1.5184342
0.12741263 0.40963846 1.5186893
0.1302537 0.4099564 1.5198679
0.1796225 0.40997806 1.5199482
0.18224317 0.40970457 1.5189342
0.18489043 0.4094981 1.5181688
0.18763 0.40949905 1.5181724
0.19036956 0.40949997 1.5181758
0.19319879 0.40969104 1.5188842
0.086384326 0.41272512 1.5199656
0.13017027 0.41243425 1.5188944
0.1795682 0.41259563 1.5194888
0.18216448 0.412267 1.5182785
0.18767948 0.4123469 1.5185728
0.19051318 0.41255012 1.5193212
0.17962416 0.41546655 1.5199623
0.18219502 0.41507587 1.518533
0.18499283 0.41520613 1.5190096
0.18782602 0.41541085 1.5197585
0.13294311 0.418017 1.5192648
0.18231502 0.41809082 1.5195332
0.13293889 0.42074472 1.5192165
0.18260352 0.39953101 1.5219377
0.18521954 0.39925101 1.5208712
0.18786615 0.39904419 1.5200832
0.1906929 0.39922038 1.5207545
0.19358927 0.3995353 1.5219541
0.19339041 0.40186805 1.5203907
0.17985572 0.4022727 1.5219218
0.18247965 0.40200403 1.5209053
0.19627206 0.40215185 1.5214645
0.11120057 0.40498972 1.5218133
0.11392405 0.40491077 1.5215166
0.11664645 0.4048318 1.5212198
0.11938479 0.40481049 1.5211397
0.17977791 0.40484339 1.5212634
0.18240075 0.40457308 1.5202477
0.19614515 0.40463507 1.5204806
0.094673499 0.40750766 1.5209632
0.12480836 0.40734157 1.5203433
0.12766038 0.4076896 1.5216422
0.17707489 0.40768406 1.5216216
0.17970017 0.40741181 1.5206054
0.19610314 0.40729114 1.5201551
0.1769983 0.41025189 1.5209634
0.19619891 0.41023406 1.5208974
0.17699639 0.41299158 1.520947
0.19334966 0.41275352 1.5200703
0.19629477 0.4131799 1.5216405
0.13308552 0.41572076 1.5208923
0.17704846 0.415858 1.5213944
0.19066198 0.41561571 1.5205079
0.19350076 0.41582078 1.5212582
0.17974257 0.41848463 1.5209644
0.18513596 0.41827011 1.5201848
0.18797231 0.41847849 1.5209421
0.19081104 0.41868609 1.5216966
0.17986116 0.42150667 1.5219678
0.18244345 0.4211289 1.5206037
0.18527925 0.42133874 1.5213614
0.13306029 0.42387247 1.5206039
0.18258472 0.42420056 1.521781
0.13313845 0.42686659 1.5214971
0.13316733 0.42970487 1.5218271
0.18277498 0.39715764 1.5233667
0.18547547 0.39705488 1.5229726
0.1882126 0.39703244 1.5228864
0.19094941 0.39700991 1.5228001
0.19384585 0.39731523 1.5239712
0.17998382 0.39981142 1.5230058
0.19649021 0.39985073 1.5231556
0.17459734 0.40281117 1.5239589
0.17722829 0.40254176 1.5229397
0.19915776 0.40243602 1.5225396
0.10032118 0.40540752 1.5233831
0.10302377 0.40522683 1.5227042
0.10575043 0.40514779 1.5224072
0.10847604 0.40506876 1.5221102
0.12219841 0.40503967 1.5220009
0.12506913 0.40544388 1.5235198
0.1745217 0.40538505 1.5232987
0.17715156 0.40511402 1.5222803
0.19912054 0.40510729 1.5222551
0.1304543 0.40784132 1.5222086
0.17444614 0.40795669 1.5226392
0.13330223 0.40815219 1.5233688
0.17183946 0.40829057 1.5238853
0.1992179 0.40805322 1.5229994
0.089300513 0.41078237 1.5229301
0.1332195 0.41064569 1.5224234
0.1718387 0.41103816 1.5238785
0.17442042 0.41064334 1.5224147
0.19931535 0.41100201 1.5237445
0.13318321 0.41327986 1.5220087
0.17183793 0.41378573 1.5238717
0.17441964 0.41338828 1.5224079
0.17446789 0.41625017 1.5228291
0.19639072 0.41612858 1.5223843
0.17458314 0.41927445 1.5238349
0.17716527 0.41887915 1.5223982
0.19365211 0.41889286 1.5224481
0.19649598 0.41909981 1.5232003
0.17728226 0.4219043 1.5234035
0.18811788 0.42154881 1.5221199
0.19095933 0.4217591 1.5228792
0.19380362 0.42196956 1.5236392
0.17997989 0.42453271 1.5229725
0.18542276 0.42441213 1.5225399
0.18826367 0.42462391 1.5232996
0.18009877 0.42756274 1.5239785
0.18272619 0.42727703 1.5229601
0.18556651 0.42749026 1.5237201
0.1803329 0.39508048 1.5259596
0.18307567 0.39505804 1.5258729
0.18581815 0.39503562 1.5257864
0.18856032 0.39501321 1.5256999
0.19130217 0.3949908 1.5256133
0.19410312 0.39508933 1.5259938
0.17752722 0.39771602 1.5255084
0.18015292 0.39743662 1.5244367
0.19675085 0.39762932 1.5251759
0.1747334 0.4003734 1.5251466
0.17736046 0.40009221 1.5240755
0.19939575 0.40016663 1.524359
0.1169927 0.40328074 1.5257354
0.11972206 0.40320188 1.5254371
0.12245744 0.40314639 1.5252272
0.17196286 0.40308094 1.5249796
0.20217748 0.40297958 1.5245961
0.09765213 0.40573773 1.524624
0.12787324 0.40561941 1.5241795
0.1306719 0.40577066 1.5247477
0.13347265 0.405922 1.5253164
0.16925353 0.40593326 1.5253588
0.17188831 0.40565643 1.5243185
0.20229137 0.40595889 1.525455
0.092228107 0.40883207 1.5259063
0.1362377 0.4087131 1.5254623
0.16925277 0.40868351 1.5253519
0.086641513 0.41120338 1.524491
0.1362005 0.41135305 1.5250459
0.16925201 0.41143376 1.5253451
0.13616334 0.41399157 1.5246297
0.19941293 0.41395372 1.5244904
0.16925126 0.41418397 1.5253383
0.13611859 0.41660535 1.5241286
0.16929214 0.41703671 1.5257066
0.17188245 0.41664305 1.5242665
0.19952132 0.41693076 1.525319
0.1361638 0.41949454 1.5246348
0.1719961 0.41967046 1.5252743
0.13619338 0.42233706 1.5249661
0.17469852 0.42230272 1.5248421
0.19664986 0.42217839 1.5243932
0.13622299 0.42518085 1.5252976
0.17481917 0.42534745 1.5258952
0.17739941 0.42493346 1.5244101
0.19110739 0.42483586 1.52406
0.19395398 0.42504808 1.5248213
0.19680339 0.42526048 1.5255833
0.17752837 0.42799476 1.5255183
0.18840969 0.42770374 1.5244811
0.19129236 0.42799947 1.5255351
0.13625261 0.42802587 1.5256293
0.18027569 0.43073505 1.5254755
0.18288493 0.43039837 1.5242832
0.18578747 0.43075171 1.5255345
0.17769429 0.39533535 1.526944
0.19701217 0.39540204 1.5272017
0.1748978 0.39799577 1.5265815
0.19966044 0.39794391 1.5263826
0.17226468 0.39827594 1.5276561
0.16946819 0.40093693 1.5272933
0.17210265 0.40065494 1.5262191
0.20240697 0.40068319 1.5263268
0.10332988 0.40367541 1.5272286
0.10606459 0.4035964 1.5269297
0.10879822 0.40351745 1.526631
0.11153078 0.40343848 1.5263323
0.11426228 0.40335959 1.5260338
0.12528549 0.40339175 1.5261555
0.12808682 0.40354234 1.5267252
0.13089024 0.40369305 1.5272954
0.13369575 0.40384385 1.5278659
0.1666833 0.40362155 1.5270249
0.16932486 0.4033511 1.5260016
0.13636483 0.40633968 1.5268859
0.16666183 0.4063243 1.5268282
0.089561291 0.40922621 1.5273774
0.1666611 0.40907723 1.5268214
0.20240539 0.40894151 1.5263149
0.16666035 0.41183013 1.5268146
0.20251955 0.41192752 1.5271757
0.13918202 0.41203389 1.52757
0.084041342 0.4146958 1.5272232
0.13907979 0.41448531 1.526448
0.1419456 0.41481191 1.5276508
0.16665959 0.41458297 1.5268077
0.13910307 0.41730922 1.5267036
0.16669692 0.41743112 1.5271496
0.19963378 0.41991931 1.5261787
0.16940416 0.42006725 1.5267164
0.16953854 0.42315719 1.5279274
0.17210989 0.42270187 1.5262834
0.19975096 0.422921 1.5270746
0.17225266 0.42580858 1.5275495
0.17496543 0.42845863 1.5271717
0.19420421 0.42835113 1.5267886
0.17776689 0.43132588 1.527568
0.1886948 0.43110564 1.526788
0.17522752 0.39322713 1.5294595
0.17791857 0.39307588 1.5288713
0.18066671 0.39305356 1.5287844
0.18341456 0.39303121 1.5286975
0.1861621 0.39300886 1.5286106
0.18890931 0.39298654 1.5285237
0.19165623 0.39296421 1.5284369
0.19440281 0.39294186 1.52835
0.19727419 0.39316887 1.5292329
0.17242703 0.39589244 1.5290958
0.17506251 0.3956137 1.5280192
0.19996169 0.39578623 1.5286856
0.16698177 0.39882421 1.5297592
0.16962786 0.3985565 1.5287323
0.20272954 0.3985635 1.5287591
0.12006687 0.40160298 1.5298305
0.1227718 0.40142241 1.5291426
0.12552062 0.40139011 1.5290196
0.12830111 0.40145832 1.5292795
0.1311093 0.40160847 1.5298514
0.16148609 0.40164489 1.5299901
0.16416219 0.40143865 1.5292045
0.16683002 0.40121931 1.5283689
0.20549765 0.40134105 1.5288327
0.10064513 0.40395924 1.5283024
0.16404426 0.4039073 1.5281059
0.20540909 0.40392527 1.5281739
0.13653713 0.40409476 1.5288152
0.16140987 0.40421447 1.529268
0.09516716 0.40687409 1.5288941
0.13926797 0.40677276 1.5285133
0.15869653 0.40709108 1.5297095
0.16136733 0.40686631 1.5288649
0.16403976 0.4066532 1.528064
0.20552509 0.40691206 1.5290368
0.13922988 0.40941852 1.5280952
0.14215459 0.40990207 1.5299
0.15869768 0.40985399 1.5297205
0.161373 0.40963918 1.5289187
0.16404554 0.40942457 1.5281178
0.20564121 0.4099023 1.5299008
0.14205003 0.41235882 1.5287746
0.14492255 0.41268426 1.5299811
0.15870327 0.4126285 1.5297744
0.1613787 0.41241223 1.5289726
0.16405132 0.41219616 1.5281717
0.1587241 0.41544306 1.5299752
0.16138437 0.41518542 1.5290264
0.16405709 0.41496792 1.5282254
0.20263383 0.4149169 1.5280374
0.16410629 0.41785049 1.5286838
0.20275389 0.41792127 1.5289427
0.14211991 0.4180809 1.5295267
0.13927923 0.42059568 1.5286369
0.16424385 0.42096111 1.529965
0.1668231 0.42050451 1.5283055
0.2028845 0.4209508 1.5299276
0.13932298 0.42348671 1.5291172
0.16696288 0.42361656 1.5295861
0.13935336 0.42633849 1.5294505
0.16968057 0.42627069 1.5292073
0.19994488 0.42608944 1.5285571
0.17239691 0.42892352 1.5288287
0.19712083 0.42870334 1.528044
0.17525122 0.43191835 1.5296663
0.19160688 0.43146011 1.5280434
0.1945238 0.43181524 1.529301
0.18348587 0.43457177 1.5292917
0.18621205 0.43449479 1.5290208
0.18900532 0.43457425 1.5293005
0.17275263 0.39111194 1.5319833
0.17549501 0.39106369 1.5317942
0.17824855 0.3910414 1.5317069
0.1810018 0.39101917 1.5316198
0.18375471 0.39099687 1.5315325
0.18650731 0.39097461 1.5314453
0.18925962 0.39095235 1.5313581
0.19201159 0.39093009 1.5312709
0.19476326 0.39090782 1.5311837
0.19753692 0.3909297 1.5312694
0.1699481 0.39378217 1.5316184
0.17258967 0.39350447 1.5305382
0.20028083 0.39365545 1.5311254
0.16444758 0.39660886 1.5318629
0.16712685 0.39640829 1.5310882
0.16978782 0.3961716 1.530174
0.20305312 0.39643705 1.5311992
0.16162504 0.39922768 1.5313066
0.16430476 0.39902583 1.5305325
0.20582567 0.39921895 1.5312731
0.10912232 0.40195692 1.5311787
0.11186295 0.40187803 1.5308782
0.11460251 0.40179917 1.5305779
0.117341 0.40172037 1.5302777
0.1339196 0.40175879 1.530424
0.13673198 0.40190914 1.5309968
0.1588465 0.40195072 1.5311551
0.10365262 0.40217215 1.5319986
0.1063806 0.4020358 1.5314792
0.20859849 0.40200105 1.5313469
0.098117746 0.40490845 1.5318936
0.13944162 0.40451878 1.5304193
0.15612908 0.40483025 1.5315977
0.15877149 0.40452212 1.530432
0.20865592 0.4048754 1.5317686
0.089805461 0.40757862 1.5315415
0.092492141 0.40724152 1.5302747
0.14225931 0.40744174 1.5310271
0.1560553 0.407401 1.530874
0.087057777 0.41041523 1.5318153
0.14502932 0.41022581 1.5311083
0.15333857 0.41028428 1.5313265
0.15601954 0.41006905 1.5305232
0.14781122 0.41304258 1.5313096
0.15334399 0.41306174 1.5313807
0.15602502 0.41284499 1.5305771
0.20576416 0.4129093 1.5308155
0.14496391 0.41556323 1.5304177
0.15610445 0.41581804 1.5313561
0.20589687 0.41593933 1.5318028
0.15888445 0.41862598 1.5315208
0.16150187 0.41824844 1.5301397
0.14230022 0.42137441 1.5314672
0.16165897 0.4214187 1.5316281
0.20301525 0.42398423 1.5309137
0.16438161 0.42407691 1.5312483
0.16710289 0.42673382 1.5308688
0.16985536 0.42947167 1.5307826
0.20031992 0.42965168 1.5314242
0.1727286 0.43251243 1.5317702
0.19752978 0.4323554 1.5312141
0.1782804 0.43533587 1.5319806
0.18086454 0.43490329 1.5304583
0.19192246 0.43493217 1.53056
0.19484441 0.43529072 1.5318217
0.16742247 0.39157489 1.5337965
0.17009881 0.39136556 1.5329766
0.20055683 0.3914316 1.5332353
0.16727217 0.39398816 1.5324196
0.16190641 0.39438739 1.5339724
0.16459064 0.39418769 1.5331956
0.20334315 0.39423671 1.5333863
0.15908089 0.39701059 1.5334145
0.16176559 0.39680964 1.5326383
0.20613004 0.39704242 1.5335375
0.12035421 0.39979732 1.5334916
0.12306549 0.39961714 1.5328006
0.12580524 0.39953536 1.5324868
0.12858599 0.39958444 1.5326751
0.13136744 0.39963359 1.5328636
0.13414957 0.39968273 1.5330521
0.13696139 0.39981654 1.5335654
0.15627681 0.39968139 1.533047
0.15894261 0.39942968 1.5320815
0.20891748 0.3998487 1.5336887
0.13961822 0.40226635 1.5323575
0.14253269 0.40268946 1.5339692
0.14527091 0.40260795 1.5336587
0.14802203 0.40256459 1.5334935
0.15082166 0.40265229 1.5338277
0.15355527 0.40256384 1.5334907
0.15620291 0.40225706 1.532322
0.095434144 0.40524933 1.5331832
0.14235222 0.40494367 1.5320269
0.14519 0.40514925 1.5328046
0.14798775 0.40523747 1.5331384
0.15078671 0.40532577 1.5334724
0.15348265 0.40513885 1.5327653
0.14513625 0.40776375 1.5322371
0.1479535 0.40790915 1.5327835
0.15075181 0.40799803 1.5331174
0.15341006 0.40771142 1.5320405
0.20878182 0.40788502 1.5326928
0.1479086 0.41055006 1.5323185
0.15068948 0.41059428 1.5324836
0.20891663 0.41091549 1.5336825
0.084325656 0.41333395 1.5323899
0.15069842 0.41338372 1.5325744
0.14797138 0.41625592 1.5329688
0.15078329 0.41638321 1.5334375
0.15348005 0.41619363 1.5327394
0.14514792 0.41885543 1.5323603
0.14803012 0.41918808 1.5335773
0.15626228 0.41900417 1.5329045
0.20602974 0.41897324 1.5327913
0.14527643 0.42199343 1.533717
0.15904513 0.42181534 1.5330697
0.20616278 0.42201105 1.5337811
0.14246966 0.42464259 1.5332909
0.16179472 0.42453828 1.5329143
0.16451961 0.42719799 1.5325339
0.20328943 0.42732269 1.5329813
0.16732347 0.43006283 1.5328896
0.17019907 0.43310818 1.5338801
0.13415676 0.43566373 1.5331343
0.17569111 0.43576932 1.5335059
0.19234218 0.43865088 1.5339073
0.16761093 0.38924521 1.5355231
0.17030974 0.3890816 1.5348775
0.17305765 0.38903359 1.5346882
0.17581643 0.38901114 1.5345997
0.17857487 0.3889887 1.5345111
0.18133302 0.38896623 1.5344225
0.18409084 0.38894379 1.5343339
0.18684833 0.38892135 1.5342454
0.1896055 0.38889888 1.5341568
0.19236238 0.38887647 1.5340683
0.19514036 0.38889673 1.5341483
0.19810817 0.38928947 1.5356976
0.16475442 0.39181092 1.5347211
0.20357931 0.39192477 1.5351671
0.16208313 0.39204723 1.5356468
0.15655592 0.39485344 1.5357851
0.15923078 0.39461541 1.5348593
0.20636943 0.39473349 1.5353185
0.12609117 0.39767215 1.5359697
0.14825079 0.39764467 1.5358635
0.15097994 0.39753434 1.5354375
0.15370615 0.39742041 1.5349973
0.15639348 0.39721176 1.5341915
0.20916013 0.39754277 1.53547
0.11764049 0.39997765 1.5341834
0.1508566 0.39997756 1.534183
0.15362798 0.39998636 1.5342168
0.10944835 0.40038702 1.5357535
0.11219712 0.40030822 1.5354513
0.11492432 0.40015817 1.5348758
0.13979526 0.40000823 1.5343006
0.14266437 0.40029129 1.5353863
0.14539364 0.4001787 1.5349544
0.14812139 0.40006617 1.5345229
0.1010749 0.40291503 1.5348285
0.21189263 0.4030115 1.5351959
0.092750169 0.40560895 1.5345438
0.21198076 0.4059501 1.5358344
0.08720737 0.40835196 1.5344474
0.084451601 0.4111824 1.5346786
0.20905162 0.41394991 1.5346735
0.20918678 0.41698822 1.5356656
0.15084316 0.41931632 1.5340464
0.15363538 0.41938308 1.5342907
0.14808889 0.42212254 1.5341862
0.15090308 0.42225173 1.5346558
0.15371901 0.42238104 1.5351257
0.15642045 0.42219681 1.5344561
0.14533414 0.42492932 1.5343262
0.14814773 0.42505938 1.5347958
0.15096305 0.42518952 1.5352657
0.1537801 0.42531976 1.535736
0.15920219 0.42500064 1.5345837
0.20633008 0.42512307 1.5350257
0.1619307 0.42766315 1.5342026
0.13993661 0.43089393 1.535852
0.16478461 0.4306556 1.5350025
0.20360756 0.43076158 1.5353802
0.13704413 0.43328094 1.534492
0.20075086 0.43334493 1.5347186
0.19795467 0.43605399 1.5345078
0.18150572 0.43921614 1.5358839
0.18413782 0.43888488 1.5347255
0.18687357 0.43880683 1.5344527
0.18960837 0.43872884 1.5341799
0.1951661 0.43877769 1.5343508
0.16788058 0.38709652 1.5379933
0.17060752 0.38698781 1.5375613
0.1733716 0.38696542 1.5374724
0.17613536 0.38694304 1.5373834
0.1788988 0.38692066 1.5372945
0.18166192 0.38689831 1.5372057
0.18442471 0.3868759 1.5371168
0.18718721 0.38685355 1.537028
0.18994936 0.38683116 1.536939
0.16226426 0.38971159 1.5373628
0.16493842 0.38947642 1.5364351
0.15673089 0.39252073 1.5375015
0.15940863 0.39228383 1.5365735
0.20662633 0.39245135 1.5372297
0.15119572 0.39532825 1.5376319
0.15387785 0.39509177 1.5367121
0.20940335 0.39523149 1.5372555
0.12064295 0.39798304 1.5371705
0.1233606 0.39780328 1.5364761
0.12887828 0.39772117 1.536159
0.13166609 0.39777017 1.5363483
0.13445456 0.39781919 1.5365376
0.13724375 0.39786825 1.5367271
0.1400336 0.39791727 1.5369165
0.14278795 0.39786544 1.5367163
0.14552014 0.39775503 1.5362898
0.11792284 0.39816299 1.5378655
0.10404204 0.40090865 1.5377543
0.10669851 0.40046585 1.5360559
0.21213977 0.40070847 1.5369865
0.095716357 0.40367332 1.5377171
0.098387346 0.40324956 1.5361028
0.090079613 0.40605119 1.5362169
0.2121224 0.40899417 1.5368606
0.21226421 0.41204229 1.5378881
0.081831381 0.41747874 1.5374721
0.081826627 0.42022824 1.5373827
0.20932212 0.4200305 1.5366592
0.20945764 0.42307669 1.537654
0.15657894 0.42539588 1.5360109
0.14283423 0.42850268 1.5372144
0.15936226 0.42819947 1.5361266
0.2066534 0.42856309 1.5374311
0.16779767 0.43405512 1.5372338
0.18199202 0.38482285 1.539999
0.18475983 0.38480052 1.5399097
0.16246156 0.38740835 1.5392323
0.16515562 0.38721362 1.5384585
0.19286063 0.38710874 1.5380418
0.1958058 0.38744554 1.53938
0.15958688 0.38994706 1.5382917
0.20119485 0.38990176 1.538113
0.15690626 0.39018282 1.5392218
0.15136571 0.39299539 1.5393606
0.15404992 0.39275789 1.5384305
0.20972952 0.39306924 1.53965
0.12637869 0.3958014 1.5394721
0.12917189 0.39584935 1.5396587
0.13196608 0.39589822 1.5398488
0.13752435 0.39590344 1.5398691
0.14025553 0.39577055 1.5393522
0.1429922 0.39565802 1.5389144
0.14572823 0.39554805 1.5384867
0.14846274 0.39543813 1.5380592
0.10974774 0.39870381 1.5399544
0.11247523 0.39852336 1.5392574
0.11520027 0.39834312 1.5385612
0.21244922 0.39851585 1.5392284
0.10136412 0.40129083 1.5392202
0.093043514 0.40411437 1.5393971
0.087451518 0.40671894 1.5387433
0.084634684 0.40929887 1.5380056
0.21240622 0.41509452 1.5389169
0.21254842 0.41815081 1.5399472
0.20970741 0.42635876 1.5394876
0.14863382 0.42923224 1.5398316
0.15138444 0.42915407 1.5395511
0.1541387 0.4290888 1.539317
0.15689819 0.42904019 1.5391426
0.16237828 0.4316209 1.5384431
0.2039867 0.43433902 1.5382392
0.17346966 0.43714356 1.538342
0.073714152 0.27121246 1.5417515
0.076445572 0.2710343 1.5407388
0.079209886 0.27098119 1.5404369
0.081979774 0.27095011 1.5402602
0.084750384 0.27092335 1.5401081
0.087630972 0.27123871 1.5419009
0.076440744 0.27379686 1.5406415
0.079200551 0.27372822 1.5402553
0.081986956 0.27375308 1.5403951
0.084788054 0.27382371 1.5407927
0.07647375 0.27669594 1.5413067
0.079228103 0.27660337 1.5407912
0.082026184 0.27666458 1.5411321
0.084841087 0.27677667 1.5417564
0.079274639 0.27954742 1.5416962
0.082065448 0.27957889 1.5418698
0.16270953 0.38521832 1.5415816
0.16544153 0.38510337 1.5411217
0.16817187 0.38498849 1.5406619
0.17091762 0.38491201 1.5403559
0.1736867 0.38488972 1.5402666
0.17645545 0.3848674 1.5401773
0.1792239 0.38484511 1.5400882
0.18763232 0.38499373 1.5406829
0.19057189 0.38531688 1.5419761
0.15708201 0.38783965 1.5409458
0.15976553 0.38760507 1.5400138
0.19884677 0.38795981 1.5414232
0.15439524 0.38807452 1.5418791
0.15153527 0.39065516 1.5410851
0.15422238 0.39041883 1.5401528
0.2042913 0.39051601 1.5405362
0.1404556 0.39355382 1.5415481
0.14319701 0.39344424 1.5411189
0.14593692 0.39333475 1.5406899
0.14867528 0.39322528 1.5402611
0.12365711 0.39598063 1.5401692
0.13476096 0.39594716 1.5400391
0.11820654 0.3963396 1.5415654
0.12093306 0.39616001 1.540867
0.10702509 0.39891168 1.5407573
0.098694839 0.4017297 1.5409036
0.090364814 0.40455633 1.5410807
0.21560562 0.41034615 1.5419409
0.081973881 0.41542697 1.5401495
0.2126908 0.42121121 1.5409788
0.1458822 0.42931047 1.5401123
0.14324413 0.43251383 1.5416259
0.20718513 0.43244681 1.541387
0.16545466 0.43518746 1.541244
0.076583996 0.26874021 1.5435287
0.079337165 0.26863286 1.5429121
0.082114421 0.26861158 1.5427899
0.084905818 0.26863644 1.5429327
0.087697737 0.26866132 1.5430756
0.090506144 0.26873362 1.5434909
0.073747769 0.27411908 1.5424546
0.087664425 0.27412528 1.5424895
0.073781416 0.27702832 1.5431583
0.087719314 0.27708164 1.5434552
0.076529227 0.27967957 1.5424249
0.084894173 0.27973327 1.5427212
0.076584794 0.28266752 1.5435448
0.079325862 0.28251141 1.5426923
0.082107179 0.28250435 1.5426538
0.084947631 0.28269458 1.5436926
0.079377145 0.28547919 1.5436896
0.082160257 0.28547207 1.5436511
0.16572918 0.38298762 1.5438013
0.16846418 0.38287315 1.54334
0.17122883 0.38282868 1.5431607
0.17400293 0.38280645 1.543071
0.17677672 0.38278425 1.5429815
0.17955019 0.38276201 1.542892
0.18239453 0.38288927 1.5434049
0.15458137 0.38575709 1.5437378
0.15728727 0.3855626 1.5429595
0.15999046 0.38536832 1.542182
0.1935226 0.38565296 1.543321
0.14901194 0.38854513 1.5437489
0.15170521 0.38830966 1.5428133
0.20194617 0.38857231 1.5438567
0.14065716 0.39133328 1.5437602
0.14340244 0.39122415 1.5433297
0.14614621 0.3911151 1.5428995
0.1488449 0.39089176 1.5420184
0.12668306 0.3939704 1.5431798
0.12946685 0.393969 1.5431743
0.13224353 0.3939465 1.5430862
0.13498218 0.393814 1.5425671
0.13771899 0.39368153 1.5420483
0.12395506 0.39414921 1.5438802
0.1100067 0.39685962 1.543588
0.11274353 0.39669022 1.5429292
0.11547755 0.39651927 1.5422643
0.10437354 0.39940277 1.542654
0.096024022 0.40218759 1.5426599
0.087709196 0.40513295 1.5432773
0.21582605 0.40519601 1.5435175
0.084941611 0.40799823 1.5435832
0.21570407 0.40775028 1.5426451
0.08217293 0.41086462 1.5438892
0.082138337 0.41347602 1.5432392
0.21575023 0.41340527 1.5429752
0.15999149 0.43267262 1.5421919
0.073828623 0.26884764 1.5441457
0.071082003 0.27178413 1.5450014
0.090537012 0.27161103 1.5440173
0.071073152 0.27453744 1.5448089
0.090567894 0.27449039 1.544544
0.071115054 0.27748817 1.5457197
0.090603895 0.27738729 1.5451579
0.073825777 0.27998078 1.5440861
0.087774269 0.28004172 1.5444223
0.073877424 0.28296447 1.5451664
0.087832078 0.28301448 1.5454394
0.076640442 0.28565982 1.5446663
0.085003808 0.28566852 1.5447134
0.076699078 0.28866744 1.5458481
0.079428494 0.28845084 1.5446882
0.082213409 0.28844365 1.5446497
0.085060053 0.2886464 1.5457355
0.079481728 0.29143301 1.5457236
0.082269698 0.29142994 1.5457073
0.17154117 0.38073772 1.5459756
0.17432033 0.38071558 1.5458857
0.15480022 0.38351408 1.5459235
0.15751433 0.38333136 1.5451869
0.16025425 0.38321668 1.5447247
0.16299254 0.38310212 1.5442629
0.18532027 0.38318104 1.5445809
0.1882714 0.38351583 1.5459305
0.15187554 0.38595894 1.5445455
0.14917934 0.38619325 1.5454831
0.19648857 0.38600945 1.5447477
0.14085928 0.3891063 1.5459784
0.14360845 0.38899764 1.5455468
0.14631537 0.38878083 1.5446854
0.12968674 0.39184919 1.5457954
0.13243106 0.39171714 1.5452745
0.13517354 0.3915852 1.544754
0.13791417 0.39145333 1.5442338
0.11574818 0.39465946 1.5458789
0.11848663 0.39449078 1.5452181
0.12122273 0.39432225 1.5445579
0.1073677 0.39739993 1.5456897
0.10171546 0.39989504 1.5445554
0.093355641 0.40268329 1.5445613
0.21594816 0.40263885 1.5443908
0.15759304 0.43372953 1.545959
0.07959751 0.26672149 1.5479752
0.082381748 0.26669347 1.5478126
0.085165411 0.26666546 1.5476501
0.087948486 0.26663747 1.5474876
0.090753295 0.26667506 1.5477058
0.07119564 0.26942664 1.5474713
0.093546987 0.26947117 1.5477271
0.093498081 0.27212128 1.5469179
0.093527637 0.27499917 1.5474069
0.071164854 0.28047326 1.5468022
0.090663016 0.28035793 1.5461662
0.071214728 0.28346255 1.5478861
0.09072306 0.28333509 1.5471902
0.073929138 0.28595233 1.546248
0.087890223 0.285992 1.5464625
0.073980927 0.28894439 1.5473312
0.087948449 0.28897348 1.547487
0.07675837 0.29168183 1.5470432
0.085116372 0.29162824 1.546759
0.07953956 0.29443592 1.5468482
0.082329787 0.29443362 1.5468363
0.085172772 0.29461402 1.5477839
0.079598293 0.29744625 1.5479904
0.082389958 0.29744172 1.5479668
0.15778893 0.3812069 1.5478806
0.16053355 0.3810927 1.5474169
0.16327652 0.38097855 1.5469534
0.16601785 0.38086444 1.5464902
0.1687617 0.38075989 1.5460656
0.17713818 0.38077736 1.5461365
0.18006006 0.38105735 1.5472734
0.14937276 0.38390192 1.5474869
0.15208787 0.38370791 1.5467048
0.19122769 0.3838512 1.5472823
0.14377709 0.38666263 1.5473616
0.14647985 0.38642779 1.5464218
0.19959094 0.38662019 1.5471917
0.13261914 0.38948148 1.5474691
0.13536546 0.38935012 1.5469471
0.13810991 0.38921881 1.5464255
0.12424679 0.39228481 1.5475138
0.12698036 0.39210418 1.5468013
0.1130074 0.39482832 1.5465403
0.099050827 0.40038857 1.5464616
0.090680681 0.40318024 1.5464674
0.085088551 0.40591425 1.5462534
0.082300864 0.40871447 1.5462929
0.079517297 0.41153687 1.5464152
0.079557993 0.41453901 1.5472066
0.15487535 0.43393004 1.5466737
0.07129962 0.26702404 1.5497313
0.074026644 0.26677528 1.5482874
0.076812685 0.2667495 1.5481378
0.068437643 0.27235389 1.5482402
0.068430252 0.27511755 1.5480729
0.068490624 0.2781558 1.5494387
0.093607366 0.27802783 1.548726
0.071264669 0.28645602 1.5489717
0.090789117 0.2863349 1.5483167
0.090865113 0.28937045 1.5496128
0.074036323 0.29195455 1.5484898
0.08800675 0.2919589 1.5485128
0.074093655 0.29497662 1.5496889
0.076817758 0.29470086 1.5482401
0.088065132 0.29494828 1.54954
0.076877236 0.29772457 1.5494388
0.085229248 0.29760376 1.5488101
0.079659916 0.3004716 1.5491889
0.082450218 0.30045417 1.549099
0.08528579 0.30059746 1.5498377
0.16356148 0.37884754 1.5496533
0.16630751 0.3787339 1.5491885
0.16907014 0.37866122 1.5488912
0.1718632 0.37865797 1.5488778
0.14958476 0.38165084 1.5496832
0.15230361 0.38145769 1.5488989
0.15504266 0.38132116 1.5483446
0.18300241 0.38137144 1.5485488
0.1859591 0.38170552 1.5499053
0.14393897 0.38430309 1.549104
0.14665489 0.38409615 1.5482697
0.19418915 0.38418716 1.5486367
0.13280776 0.38723946 1.54967
0.1355579 0.38710865 1.5491465
0.13830736 0.38698119 1.5486364
0.14106198 0.38687295 1.5482032
0.12988649 0.38965946 1.5481763
0.12720488 0.39000177 1.5495363
0.11601959 0.39278921 1.5495037
0.11876434 0.39262092 1.5488398
0.12150674 0.39245281 1.5481765
0.1103335 0.39524531 1.5481737
0.10474598 0.39803475 1.5481588
0.0963796 0.40088329 1.5483724
0.088012561 0.40374017 1.5486151
0.08246132 0.40671602 1.5493076
0.07966806 0.40952176 1.5493472
0.079613887 0.41762373 1.5482937
0.079669863 0.4207128 1.5493823
0.093688324 0.26708165 1.5500655
0.068521604 0.2698912 1.5501395
0.068555862 0.28121895 1.5509146
0.093687221 0.28106168 1.5500473
0.093767226 0.28410068 1.5513709
0.071314685 0.28945372 1.5500587
0.071368366 0.29247037 1.5512255
0.090941228 0.29241103 1.5509108
0.088123582 0.29794165 1.5505686
0.074151084 0.29800341 1.55089
0.076936804 0.30075294 1.5506394
0.088182114 0.30093896 1.5515984
0.076992981 0.3037723 1.5517716
0.079714946 0.30347621 1.5502591
0.082510568 0.30347109 1.5502329
0.085344225 0.30360159 1.5508996
0.079768367 0.30647847 1.551298
0.082571007 0.30649236 1.5513684
0.1665982 0.37659591 1.5518963
0.1498066 0.37941673 1.5519816
0.15256089 0.37930274 1.5515153
0.15531352 0.37918887 1.5510495
0.1580645 0.37907502 1.5505838
0.16081381 0.37896124 1.5501184
0.17478639 0.37893689 1.5500188
0.17771554 0.37921977 1.551176
0.14686315 0.38184416 1.5504683
0.14413878 0.38203773 1.5512543
0.18892094 0.38204014 1.551264
0.1357509 0.38486084 1.5513521
0.13850673 0.38474092 1.5508687
0.14122999 0.3845371 1.5500472
0.19722548 0.38465965 1.5505412
0.13011636 0.38755089 1.5509162
0.12179208 0.39057457 1.5518122
0.12451855 0.39034468 1.5508987
0.11330885 0.39308378 1.5506657
0.10771231 0.39587772 1.5506507
0.10209259 0.39858064 1.550282
0.093701765 0.4013792 1.5502878
0.085342266 0.40432647 1.550864
0.077002145 0.4158116 1.5519564
0.0769841 0.41851357 1.5515927
0.074292772 0.26493084 1.5538535
0.077066988 0.2648302 1.5532633
0.079862185 0.26480621 1.5531225
0.082660139 0.26479265 1.553043
0.085457809 0.26477912 1.5529636
0.088255182 0.26476556 1.5528841
0.091052279 0.264752 1.5528047
0.068638466 0.26754993 1.5527834
0.096678376 0.27602378 1.5531722
0.068621226 0.28428793 1.5523933
0.068686716 0.28736278 1.5538749
0.093846478 0.28714219 1.552682
0.093925238 0.29018694 1.5539852
0.07143642 0.2955507 1.5527048
0.09101747 0.29545671 1.552211
0.091093846 0.29850751 1.5535135
0.074208587 0.30103484 1.5520928
0.088240728 0.30394027 1.5526297
0.074265696 0.30406898 1.5532871
0.077044629 0.30677769 1.5528126
0.085406773 0.30662429 1.5520362
0.088299416 0.30694559 1.5536624
0.077096336 0.30978709 1.5538548
0.079821862 0.30948475 1.5523382
0.082631119 0.30951655 1.5524977
0.085469395 0.30965143 1.5531743
0.079875417 0.31249505 1.5533798
0.08269123 0.31254482 1.5536273
0.1555853 0.37704909 1.5537637
0.15834102 0.37693569 1.5532964
0.16109505 0.37682235 1.5528294
0.16384745 0.3767091 1.5523627
0.16949394 0.37680885 1.5527738
0.17242275 0.37708715 1.5539206
0.14434385 0.37977847 1.5534613
0.147072 0.37958583 1.5526732
0.18067262 0.37955254 1.5525371
0.18363486 0.37988585 1.5539005
0.1359549 0.38263598 1.5536834
0.13868174 0.38242543 1.5528284
0.14141165 0.38223147 1.5520409
0.19188802 0.38237539 1.5526253
0.13034704 0.38543484 1.5536659
0.13303304 0.38509563 1.5522985
0.1274302 0.38789192 1.552281
0.1247393 0.38823357 1.5536482
0.1162938 0.39091527 1.5531658
0.11904336 0.3907423 1.5524786
0.1106882 0.39371374 1.5531508
0.10508272 0.39651212 1.5531358
0.099418513 0.39907432 1.5522022
0.091025718 0.40191355 1.5523517
0.082664207 0.4049145 1.5531194
0.079837978 0.40759388 1.5526516
0.077082649 0.41344333 1.553579
0.071528606 0.26507661 1.5547085
0.094034009 0.26526013 1.5557848
0.09678524 0.27352351 1.5548891
0.096748777 0.27902907 1.5543033
0.096819282 0.28203878 1.555436
0.068752334 0.29044351 1.5553592
0.094004147 0.29323682 1.5552907
0.071504615 0.29863691 1.5541869
0.071563423 0.30168894 1.5554652
0.091170341 0.30156344 1.5548182
0.074315555 0.30707747 1.55433
0.088358186 0.30995491 1.5546964
0.074375384 0.31013131 1.5555813
0.077148117 0.31280056 1.5548984
0.085532121 0.31268302 1.5543141
0.088417031 0.31296822 1.5557319
0.077199973 0.31581807 1.5559435
0.079929054 0.31550941 1.5544229
0.082751438 0.31557754 1.5547584
0.085594945 0.31571904 1.5554557
0.079982758 0.31852782 1.5554672
0.082811736 0.31861463 1.5558913
0.16422179 0.37476256 1.5559094
0.14454952 0.37751281 1.5556747
0.14730823 0.37738967 1.5551672
0.15006891 0.37727606 1.5546991
0.15282795 0.37716255 1.5542313
0.17536815 0.37739223 1.5551778
0.14161295 0.37997136 1.5542502
0.13614279 0.38035771 1.5558306
0.13887925 0.38016444 1.55504
0.18660232 0.38021979 1.5552664
0.13053744 0.38319051 1.5559351
0.1332494 0.38291669 1.5548233
0.12765633 0.38577458 1.5550355
0.12204367 0.38857582 1.5550178
0.1136737 0.39154276 1.5556588
0.10805914 0.3943457 1.5556438
0.10244469 0.39714858 1.5556287
0.096737817 0.39956924 1.5541272
0.088353351 0.4024986 1.5546114
0.085734285 0.26282477 1.5579878
0.066007465 0.27947843 1.5568063
0.066027902 0.28237465 1.5572883
0.096889898 0.2850529 1.5565704
0.096960612 0.28807139 1.5577065
0.068816207 0.29352218 1.5568043
0.068861626 0.29652658 1.5578318
0.094083183 0.2962918 1.5565983
0.094162352 0.29935196 1.5579082
0.071611203 0.30469865 1.5565038
0.091246977 0.30462453 1.556125
0.071664616 0.30773631 1.5576648
0.091323733 0.30769074 1.5574341
0.074440636 0.31321248 1.5569462
0.08848685 0.31602445 1.5569603
0.077261955 0.31888115 1.5571928
0.085657537 0.31875837 1.5565932
0.080036528 0.32155028 1.5565131
0.082872123 0.3216562 1.5570258
0.085720025 0.32180142 1.5577288
0.080090381 0.3245768 1.5575603
0.14756669 0.37524104 1.5578959
0.15033214 0.37512788 1.5574261
0.15309593 0.37501481 1.5569566
0.15585804 0.37490177 1.5564874
0.15863687 0.37483224 1.5561987
0.1614296 0.3747974 1.5560541
0.16711277 0.37495047 1.5566896
0.17004718 0.37522808 1.5578421
0.13907734 0.37789699 1.5572579
0.14181481 0.3777048 1.5564659
0.17833076 0.3777242 1.5565459
0.18129861 0.37805679 1.5579164
0.13069338 0.38083771 1.557794
0.13341427 0.38058174 1.556747
0.18960203 0.38060853 1.5568565
0.12782159 0.38346475 1.5570487
0.12223206 0.38636571 1.5574182
0.12495254 0.38608932 1.5563041
0.11932369 0.38885486 1.5561345
0.099788956 0.39775035 1.5579858
0.094053447 0.40007812 1.5561064
0.085673206 0.40308541 1.5568779
0.074571833 0.26311195 1.5596901
0.077356353 0.2630116 1.5590954
0.08013875 0.26291135 1.558501
0.082927577 0.26283827 1.5580678
0.088551521 0.2628434 1.5580983
0.091397136 0.26294252 1.5586859
0.066059045 0.28531885 1.5580227
0.066107899 0.28834295 1.559175
0.097031422 0.29109427 1.5588441
0.068907104 0.29953498 1.5588607
0.068952635 0.30254731 1.5598907
0.094241649 0.30241725 1.5592202
0.071723521 0.31080192 1.5589449
0.091400623 0.31076214 1.5587454
0.074506015 0.31629911 1.5583135
0.074571498 0.31939113 1.5596831
0.088561326 0.31910193 1.5582708
0.077329814 0.32197323 1.5585605
0.088636495 0.32218662 1.5595934
0.077397794 0.32507074 1.5599306
0.082932591 0.32470217 1.558162
0.085782818 0.32484969 1.5588698
0.080157846 0.32766277 1.5588723
0.082993969 0.32775584 1.5593151
0.1618358 0.372926 1.5599697
0.13927598 0.37562308 1.5594821
0.14203079 0.37546754 1.5588363
0.14479958 0.37535426 1.5583659
0.17300858 0.37555522 1.5592003
0.13086544 0.37852478 1.5598449
0.13359621 0.37828824 1.5588701
0.13633706 0.37808937 1.5580506
0.18430738 0.37846324 1.5595913
0.12797441 0.38111058 1.5589101
0.12510185 0.38373938 1.5581638
0.12237822 0.38401443 1.5592805
0.11950767 0.38664246 1.5585338
0.1139736 0.38976157 1.559763
0.11666308 0.38934544 1.5580977
0.11104519 0.39217225 1.5581599
0.10542163 0.39497969 1.5581448
0.097098716 0.39824545 1.5599252
0.091379032 0.40066192 1.5583771
0.071785182 0.26321232 1.5602852
0.066151597 0.29134852 1.5602056
0.066195346 0.29435804 1.5612376
0.097106263 0.29413345 1.5600464
0.097202361 0.29724202 1.5615903
0.069000706 0.30557457 1.5609782
0.094321787 0.30548996 1.560546
0.094402619 0.30856976 1.5618834
0.071789622 0.31390363 1.5603818
0.091478273 0.31384084 1.5600696
0.071855851 0.31701112 1.5618213
0.091556653 0.31692687 1.5614063
0.0746371 0.32248861 1.5610552
0.08871197 0.32527721 1.5609214
0.085846454 0.3279053 1.5600262
0.077465899 0.3281737 1.5613031
0.080236487 0.33079955 1.5604017
0.083055541 0.33081445 1.560472
0.085910171 0.33096543 1.5611842
0.080315284 0.3339425 1.5619341
0.083117217 0.33387762 1.5616307
0.14228059 0.37331045 1.5615779
0.14505418 0.37319764 1.561106
0.14783201 0.37309983 1.5606968
0.15063381 0.37306505 1.5605514
0.1534351 0.3730303 1.560406
0.15623586 0.37299553 1.5602605
0.1590361 0.37296075 1.5601151
0.16471952 0.37308267 1.5606251
0.16766821 0.37337881 1.5618638
0.13653189 0.37581459 1.5602771
0.1759768 0.37588644 1.5605755
0.13104428 0.37622392 1.5619766
0.13378501 0.37600631 1.5610731
0.12540154 0.37902263 1.5618964
0.12813126 0.37876165 1.5608209
0.12252474 0.38165751 1.5611473
0.12525152 0.38138384 1.560028
0.11694781 0.38465965 1.5619005
0.11965068 0.38428983 1.5603988
0.11683682 0.38710994 1.5604181
0.11127836 0.39017856 1.5614318
0.1083964 0.39276099 1.5604991
0.10277561 0.3956157 1.5606538
0.088751979 0.40149704 1.5616254
0.066239163 0.29737157 1.5622709
0.066283025 0.30038905 1.5633055
0.097320132 0.30042303 1.5634823
0.069052324 0.30862162 1.5621459
0.069104023 0.31167322 1.5633154
0.094483599 0.31165487 1.5632232
0.071922205 0.32012433 1.5632635
0.09163516 0.3200182 1.5627452
0.074702814 0.3255915 1.5624297
0.074768648 0.32869989 1.5638065
0.088774942 0.32832637 1.5620295
0.077534109 0.33128211 1.562678
0.088843189 0.3313992 1.5632303
0.085977733 0.33404464 1.5624119
0.080394231 0.33709162 1.5634695
0.083178975 0.33694535 1.5627911
0.086049028 0.33714291 1.5637075
0.083240829 0.34001762 1.5639532
0.13397656 0.37372407 1.5633081
0.13672839 0.37353635 1.5625228
0.13950534 0.37342337 1.5620502
0.1706368 0.3737087 1.5632437
0.12556522 0.37669563 1.563935
0.12830648 0.37645966 1.5629553
0.17899409 0.37631041 1.5623356
0.1226716 0.37929493 1.5630186
0.11979403 0.38193154 1.5622683
0.11705939 0.38220599 1.5633909
0.11416377 0.38759303 1.5623655
0.10857736 0.39059648 1.5631042
0.10298566 0.3936027 1.5638434
0.10569392 0.39318141 1.5621694
0.10010421 0.39618707 1.5629078
0.094443582 0.39891842 1.5625612
0.066326961 0.30341056 1.5643417
0.097438179 0.30361173 1.5653788
0.066393055 0.30653816 1.5659006
0.06915579 0.31472939 1.5644865
0.094564721 0.31474528 1.5645654
0.069207639 0.31779018 1.5656595
0.094645977 0.31784096 1.5659097
0.071988679 0.32324329 1.5647084
0.091713808 0.32311481 1.5640864
0.091792598 0.32621676 1.56543
0.074836873 0.33182386 1.5652335
0.077602446 0.334396 1.5640553
0.088920042 0.33450875 1.5645826
0.077670909 0.33751541 1.5654352
0.088997036 0.33762369 1.5659373
0.080473341 0.34024692 1.5650079
0.086120449 0.34024635 1.5650053
0.083302774 0.34309447 1.565117
0.086162716 0.3686634 1.5657734
0.088979125 0.36862779 1.5656221
0.13418598 0.3714833 1.5657518
0.13696943 0.37137073 1.5652773
0.13977545 0.37132269 1.5650748
0.14258586 0.37128794 1.5649284
0.14539576 0.37125325 1.5647821
0.14820512 0.37121853 1.5646359
0.15101397 0.37118387 1.5644897
0.15382227 0.37114915 1.5643435
0.15663007 0.37111449 1.5641973
0.15943733 0.3710798 1.5640512
0.16231416 0.37120542 1.5645806
0.16527849 0.37152347 1.5659211
0.1312236 0.37391672 1.564114
0.12848215 0.37415132 1.5650953
0.17366205 0.37414995 1.5650896
0.12282053 0.376932 1.5649163
0.18204664 0.37679422 1.5643443
0.11719992 0.3798407 1.5652676
0.11993772 0.37956762 1.5641422
0.11439876 0.38274151 1.5655814
0.11428992 0.38519934 1.5640919
0.10875892 0.38842469 1.5657179
0.11146424 0.38800842 1.5640399
0.10587056 0.39101526 1.5647801
0.10027328 0.39403161 1.5655475
0.097556517 0.30680817 1.5672799
0.069270395 0.32090572 1.5670793
0.094727375 0.32094198 1.5672565
0.07205528 0.32636803 1.5661559
0.072122 0.32949853 1.5676061
0.091871515 0.32932404 1.5667759
0.09194003 0.33239856 1.5679444
0.074906126 0.3349576 1.566682
0.077739485 0.34064031 1.5668173
0.089074157 0.34074399 1.5672942
