# .PCD v0.7 - Point Cloud Data file format
VERSION 0.7
FIELDS x y z
SIZE 4 4 4
TYPE F F F
COUNT 1 1 1
WIDTH 1511
HEIGHT 1
VIEWPOINT 0 0 0 1 0 0 0
POINTS 1511
DATA ascii
0.4209913 0.46643165 1.481501
0.42371851 0.46649134 1.4816906
0.40814582 0.3787058 1.4833884
0.41082126 0.37870494 1.4833851
0.41349757 0.37870488 1.4833848
0.41617391 0.37870488 1.4833848
0.4188503 0.37870491 1.483385
0.42152667 0.37870491 1.483385
0.42420304 0.37870491 1.483385
0.42687938 0.37870491 1.483385
0.42955577 0.37870494 1.4833851
0.43223214 0.37870494 1.4833851
0.43490851 0.37870494 1.4833851
0.43758485 0.37870494 1.4833851
0.44026124 0.37870497 1.4833852
0.44293761 0.37870497 1.4833852
0.44561398 0.37870497 1.4833852
0.44829035 0.37870497 1.4833852
0.45096669 0.37870497 1.4833852
0.45364308 0.37870499 1.4833853
0.45631945 0.37870499 1.4833853
0.45899582 0.37870499 1.4833853
0.46167219 0.37870499 1.4833853
0.46434858 0.37870502 1.4833854
0.46702492 0.37870502 1.4833854
0.46970138 0.37870508 1.4833857
0.47237793 0.37870523 1.4833863
0.4750545 0.37870544 1.483387
0.47773111 0.37870562 1.4833877
0.48040766 0.37870577 1.4833883
0.48308426 0.37870595 1.483389
0.48576087 0.37870613 1.4833897
0.48843741 0.37870628 1.4833903
0.49112904 0.37871802 1.4834363
0.49386626 0.37876466 1.483619
0.49660423 0.3788113 1.4838017
0.4993428 0.37885794 1.4839844
0.4105823 0.38115945 1.4825222
0.45326889 0.38106674 1.4821616
0.45599914 0.38111365 1.482344
0.45873004 0.38116053 1.4825264
0.46146163 0.38120744 1.4827088
0.46419391 0.38125435 1.4828913
0.46692681 0.38130128 1.4830738
0.4696604 0.38134819 1.4832563
0.4723947 0.38139516 1.483439
0.47512963 0.3814421 1.4836216
0.47786528 0.3814891 1.4838043
0.48060158 0.38153607 1.4839871
0.41322109 0.3838008 1.482393
0.43455061 0.38374162 1.4821644
0.43727854 0.38378879 1.4823467
0.44000715 0.38383603 1.482529
0.44273642 0.38388324 1.4827114
0.4454664 0.3839305 1.4828939
0.44819704 0.38397774 1.4830765
0.41088226 0.38411468 1.4836054
0.45092833 0.38402501 1.483259
0.45366031 0.3840723 1.4834416
0.45639294 0.38411957 1.4836242
0.45912629 0.3841669 1.483807
0.46186027 0.38421419 1.4839897
0.41354144 0.38677502 1.4835423
0.41599515 0.38656783 1.4827477
0.41859236 0.38649583 1.4824715
0.42128423 0.38651156 1.4825318
0.4240112 0.3865591 1.4827142
0.42673886 0.38660669 1.4828967
0.4294672 0.38665426 1.4830792
0.4321962 0.38670185 1.4832617
0.43492588 0.38674948 1.4834443
0.43765622 0.38679707 1.483627
0.44038725 0.38684472 1.4838097
0.44311893 0.38689238 1.4839925
0.4163371 0.38956299 1.4839665
0.41893658 0.38949054 1.4836905
0.42164814 0.38952258 1.4838125
0.4243775 0.3895705 1.4839951
0.40022767 0.46180114 1.4837997
0.40290436 0.46180069 1.4837983
0.4055821 0.46180141 1.4838005
0.40825981 0.46180207 1.4838027
0.41093761 0.46180284 1.4838052
0.41361541 0.46180362 1.4838077
0.41629171 0.46180269 1.4838047
0.4189676 0.46180135 1.4838004
0.42164567 0.46180239 1.4838037
0.42432398 0.4618037 1.4838079
0.42700049 0.46180302 1.4838058
0.42967689 0.46180224 1.4838033
0.43235323 0.46180144 1.4838006
0.43502972 0.46180075 1.4837985
0.43770704 0.46180099 1.4837992
0.43187109 0.46396059 1.482146
0.40283218 0.46439457 1.4835324
0.40526927 0.46412024 1.482656
0.43486053 0.46429724 1.4832214
0.40558946 0.4671641 1.4838275
0.40802741 0.46689039 1.4829581
0.41055462 0.46672171 1.4824224
0.42651099 0.46662173 1.4821048
0.42936018 0.46681216 1.4827096
0.43228993 0.46708727 1.4835835
0.41089156 0.46978155 1.4836389
0.41341874 0.46961156 1.4831021
0.41603604 0.46954551 1.4828935
0.41865999 0.46948773 1.482711
0.42136452 0.46952045 1.4828143
0.42409414 0.46958059 1.4830042
0.42690566 0.46973005 1.4834763
0.40599424 0.37919593 1.4853083
0.50208211 0.37890461 1.4841672
0.50482208 0.37895131 1.4843501
0.5075627 0.37899798 1.484533
0.51030397 0.37904468 1.4847158
0.51304597 0.37909138 1.4848988
0.51578861 0.37913811 1.4850818
0.51853192 0.37918484 1.4852649
0.52127594 0.3792316 1.485448
0.52402061 0.37927833 1.4856311
0.526766 0.37932512 1.4858143
0.52951199 0.37937191 1.4859976
0.40836212 0.38158429 1.4841746
0.48333853 0.38158306 1.4841698
0.48607621 0.38163006 1.4843527
0.48881453 0.38167709 1.4845356
0.49155352 0.38172412 1.4847184
0.49429318 0.38177115 1.4849014
0.49703351 0.38181821 1.4850844
0.49977455 0.38186526 1.4852675
0.50251627 0.38191235 1.4854506
0.50525862 0.38195944 1.4856337
0.50800169 0.38200653 1.485817
0.40864211 0.38452554 1.4851922
0.46459493 0.38426152 1.4841725
0.46733028 0.38430887 1.4843553
0.47006631 0.3843562 1.4845382
0.47280297 0.38440356 1.4847211
0.47554034 0.38445094 1.4849041
0.47827837 0.3844983 1.485087
0.48101711 0.38454571 1.4852701
0.48375651 0.38459313 1.4854532
0.48649657 0.38464051 1.4856364
0.48923731 0.38468796 1.4858196
0.41118288 0.38707444 1.4846908
0.4458513 0.38694 1.4841752
0.44858435 0.38698769 1.4843581
0.45131806 0.38703537 1.4845409
0.45405242 0.38708302 1.4847238
0.4567875 0.38713074 1.4849068
0.4595232 0.38717845 1.4850898
0.46225965 0.38722619 1.4852729
0.46499673 0.38727394 1.485456
0.46773446 0.38732165 1.4856391
0.4704729 0.38736942 1.4858223
0.41386235 0.38975388 1.4846935
0.42710757 0.38961852 1.4841779
0.42983833 0.38966653 1.4843608
0.43256974 0.38971454 1.4845437
0.43530181 0.38976252 1.4847265
0.43803456 0.38981056 1.4849095
0.44076797 0.3898586 1.4850925
0.4435021 0.38990667 1.4852756
0.44623688 0.38995475 1.4854587
0.41148394 0.39003852 1.4857779
0.44897231 0.39000282 1.4856418
0.45170844 0.39005092 1.4858251
0.4141838 0.39273739 1.4858466
0.41667962 0.39256313 1.4851874
0.41928151 0.39249039 1.4849122
0.42204383 0.39256775 1.4852049
0.39781433 0.46210757 1.4847842
0.44066477 0.46209529 1.4847448
0.3981173 0.46514043 1.4859151
0.40047053 0.46476009 1.4847001
0.43795216 0.46473822 1.4846302
0.40077552 0.46779487 1.4858309
0.40315068 0.46744049 1.4847053
0.43528259 0.46742651 1.484661
0.40836227 0.46995133 1.4841751
0.42975762 0.46992189 1.4840821
0.40346965 0.47049117 1.48588
0.40591016 0.47021276 1.4850007
0.43270957 0.47022 1.4850236
0.40387335 0.37703791 1.4873668
0.40655681 0.37703782 1.4873664
0.40924034 0.37703782 1.4873664
0.41192389 0.37703782 1.4873664
0.41460747 0.37703785 1.4873666
0.41729102 0.37703785 1.4873666
0.41997457 0.37703785 1.4873666
0.42265809 0.37703785 1.4873666
0.42534167 0.37703788 1.4873667
0.42802522 0.37703788 1.4873667
0.43070877 0.37703788 1.4873667
0.43339232 0.37703788 1.4873667
0.4360759 0.37703791 1.4873668
0.43875942 0.37703791 1.4873668
0.44144297 0.37703791 1.4873668
0.44412652 0.37703791 1.4873668
0.4468101 0.37703794 1.4873669
0.44949365 0.37703794 1.4873669
0.4521772 0.37703794 1.4873669
0.45486072 0.37703794 1.4873669
0.4575443 0.37703797 1.487367
0.46022785 0.37703797 1.487367
0.4629114 0.37703797 1.487367
0.46559495 0.37703797 1.487367
0.46827853 0.377038 1.4873672
0.47096208 0.377038 1.4873672
0.4736456 0.377038 1.4873672
0.47632915 0.377038 1.4873672
0.47901273 0.37703803 1.4873673
0.48169628 0.37703803 1.4873673
0.48437983 0.37703803 1.4873673
0.48706338 0.37703803 1.4873673
0.48974696 0.37703806 1.4873674
0.49243051 0.37703806 1.4873674
0.49511406 0.37703806 1.4873674
0.49779758 0.37703806 1.4873674
0.50048113 0.37703806 1.4873674
0.50316471 0.37703809 1.4873675
0.50584829 0.37703809 1.4873675
0.50853181 0.37703809 1.4873675
0.51121533 0.37703809 1.4873675
0.51389897 0.37703812 1.4873676
0.51658249 0.37703812 1.4873676
0.51926601 0.37703812 1.4873676
0.52194959 0.37703812 1.4873676
0.52463323 0.37703821 1.487368
0.52731699 0.37703836 1.4873686
0.53000081 0.37703854 1.4873693
0.53268462 0.37703875 1.48737
0.53536838 0.3770389 1.4873706
0.5380522 0.37703907 1.4873713
0.54073602 0.37703925 1.487372
0.54341978 0.3770394 1.4873726
0.5461036 0.37703958 1.4873734
0.53225869 0.37941867 1.4861808
0.53500611 0.37946549 1.4863641
0.53775418 0.37951228 1.4865475
0.54050291 0.37955913 1.4867309
0.54325235 0.37960598 1.4869144
0.54600245 0.3796528 1.4870979
0.54869264 0.37965778 1.4871173
0.55137622 0.37965807 1.4871185
0.40625167 0.38211793 1.4862502
0.51074541 0.38205364 1.4860002
0.51348978 0.38210076 1.4861834
0.51623487 0.38214788 1.4863667
0.51898068 0.38219506 1.4865502
0.52172709 0.3822422 1.4867336
0.5244742 0.38228938 1.486917
0.52722198 0.38233656 1.4871006
0.52997047 0.38238373 1.4872841
0.53271961 0.38243097 1.4874678
0.53546941 0.38247818 1.4876513
0.53821993 0.38252538 1.487835
0.40650946 0.38504362 1.4871932
0.49197873 0.38473541 1.4860028
0.49472085 0.38478288 1.4861861
0.49746361 0.38483036 1.4863695
0.50020707 0.3848778 1.4865528
0.50295115 0.38492528 1.4867362
0.50569594 0.38497278 1.4869196
0.50844145 0.38502032 1.4871032
0.51118761 0.38506785 1.4872868
0.51393443 0.38511539 1.4874704
0.51668197 0.38516289 1.487654
0.51943016 0.38521045 1.4878377
0.4089224 0.38747075 1.4862109
0.473212 0.3874172 1.4860055
0.47595179 0.38746497 1.4861888
0.47869223 0.38751277 1.4863721
0.48143336 0.38756058 1.4865555
0.48417521 0.38760841 1.4867389
0.48691767 0.38765624 1.4869224
0.48966083 0.38770407 1.4871058
0.4924047 0.38775194 1.4872894
0.4951492 0.3877998 1.487473
0.49789444 0.38784769 1.4876567
0.50064033 0.38789558 1.4878404
0.40920296 0.39041987 1.4872305
0.45444524 0.39009902 1.4860083
0.45718271 0.39014712 1.4861915
0.45992085 0.39019525 1.4863749
0.46265966 0.39024338 1.4865582
0.46539918 0.39029154 1.4867417
0.46813935 0.3903397 1.4869251
0.47088018 0.39038786 1.4871086
0.47362173 0.39043605 1.4872922
0.47636393 0.39048424 1.4874758
0.47910684 0.39053246 1.4876595
0.48185042 0.39058068 1.4878432
0.41178533 0.39300683 1.4868661
0.42496186 0.39278811 1.4860386
0.42809868 0.3932066 1.4876219
0.41208705 0.3959794 1.4879556
0.41450572 0.39572552 1.4870015
0.41702279 0.39556822 1.4864105
0.41964811 0.39551499 1.4862105
0.42241287 0.39559302 1.4865036
0.42535955 0.3958393 1.4874291
0.4173665 0.39857829 1.4876356
0.42001534 0.39854491 1.487511
0.42279622 0.39863643 1.4878526
0.39316896 0.46026263 1.4874794
0.39585316 0.46026316 1.4874811
0.39853731 0.46026364 1.4874827
0.40122071 0.46026322 1.4874814
0.40390405 0.46026275 1.4874798
0.40658855 0.46026361 1.4874825
0.40927288 0.46026427 1.4874847
0.41195732 0.46026504 1.4874872
0.41464165 0.46026567 1.4874892
0.41732439 0.4602645 1.4874855
0.42000762 0.46026394 1.4874836
0.42269257 0.46026525 1.4874879
0.42537645 0.46026537 1.4874883
0.42805949 0.46026459 1.4874858
0.4307422 0.46026349 1.4874822
0.43342537 0.46026286 1.4874802
0.43610922 0.46026295 1.4874805
0.43879342 0.46026346 1.4874821
0.44147709 0.46026334 1.4874817
0.44416034 0.46026284 1.48748
0.44693482 0.4603563 1.4877821
0.3932589 0.46305227 1.4878197
0.39552778 0.46256641 1.4862585
0.44399437 0.46277359 1.4869243
0.39581755 0.46558878 1.4873474
0.4411158 0.46524981 1.4862645
0.43840039 0.46789521 1.4861497
0.39842078 0.46817794 1.4870477
0.44158396 0.46842799 1.4878418
0.43570539 0.47056183 1.4861032
0.54915118 0.37728971 1.48836
0.40404639 0.37988412 1.488004
0.55479598 0.38016286 1.4890958
0.40427795 0.38278809 1.4888568
0.5409711 0.38257262 1.4880188
0.54372299 0.38261989 1.4882026
0.54647094 0.38266394 1.4883739
0.54915667 0.38266417 1.4883748
0.55184174 0.382664 1.4883741
0.55452752 0.38266426 1.4883752
0.40450978 0.38569537 1.4897106
0.52217901 0.38525805 1.4880215
0.52492857 0.38530561 1.4882052
0.52767879 0.38535321 1.488389
0.53042972 0.38540083 1.488573
0.53318131 0.38544846 1.4887569
0.53593355 0.38549608 1.4889408
0.53868651 0.3855437 1.4891248
0.54144013 0.38559136 1.4893088
0.54419446 0.38563904 1.489493
0.54693329 0.38567534 1.4896332
0.54962087 0.38567528 1.489633
0.55230874 0.38567543 1.4896336
0.55499637 0.38567543 1.4896336
0.55768394 0.3856754 1.4896334
0.40676755 0.38797301 1.4881375
0.50338686 0.38794348 1.4880241
0.50613409 0.3879914 1.4882079
0.50888199 0.38803932 1.4883918
0.51163059 0.38808724 1.4885756
0.51437986 0.38813519 1.4887595
0.51712978 0.38818315 1.4889435
0.51988041 0.38823113 1.4891275
0.52263176 0.38827911 1.4893116
0.52538371 0.38832709 1.4894956
0.52813643 0.38837513 1.4896798
0.53088975 0.38842314 1.489864
0.40702602 0.39090618 1.4890831
0.40948388 0.39337304 1.4882516
0.4097659 0.39633095 1.4892765
0.42853296 0.39629224 1.4891311
0.41238919 0.39895633 1.4890466
0.41482818 0.39871836 1.4881583
0.42575791 0.39889622 1.4888222
0.41515115 0.40171582 1.4893169
0.41771081 0.40159336 1.4888629
0.42038321 0.40158013 1.4888139
0.42319238 0.40169689 1.4892467
0.39076287 0.46058989 1.4885371
0.3910377 0.46360141 1.4895841
0.44746178 0.46358654 1.4895363
0.44447902 0.46596441 1.4885473
0.39354733 0.46607822 1.4889109
0.39610776 0.46861562 1.4884379
0.40227139 0.37536362 1.4913766
0.40496221 0.37536365 1.4913768
0.40765297 0.37536365 1.4913768
0.4103438 0.37536368 1.4913769
0.41303462 0.37536371 1.491377
0.41572541 0.37536374 1.4913771
0.4184162 0.37536374 1.4913771
0.42110702 0.37536377 1.4913772
0.42379782 0.3753638 1.4913774
0.42648861 0.3753638 1.4913774
0.42917943 0.37536383 1.4913775
0.43187022 0.37536386 1.4913776
0.43456101 0.37536386 1.4913776
0.43725184 0.37536389 1.4913777
0.4399426 0.37536389 1.4913777
0.44263342 0.37536392 1.4913778
0.44532424 0.37536395 1.4913779
0.44801503 0.37536395 1.4913779
0.45070583 0.37536398 1.4913781
0.45339665 0.37536401 1.4913782
0.45608744 0.37536401 1.4913782
0.45877826 0.37536404 1.4913783
0.46146908 0.37536407 1.4913784
0.46415985 0.37536407 1.4913784
0.46685067 0.37536409 1.4913785
0.46954149 0.37536412 1.4913787
0.47223228 0.37536412 1.4913787
0.4749231 0.37536415 1.4913788
0.47761393 0.37536418 1.4913789
0.48030469 0.37536418 1.4913789
0.48299551 0.37536421 1.491379
0.48568633 0.37536424 1.4913791
0.48837712 0.37536424 1.4913791
0.49106795 0.37536427 1.4913793
0.49375874 0.37536427 1.4913793
0.49644956 0.3753643 1.4913794
0.49914038 0.37536433 1.4913795
0.50183117 0.37536433 1.4913795
0.50452197 0.37536436 1.4913796
0.50721282 0.37536439 1.4913797
0.50990361 0.37536439 1.4913797
0.5125944 0.37536442 1.4913799
0.51528525 0.37536445 1.49138
0.51797605 0.37536445 1.49138
0.52066684 0.37536448 1.4913801
0.52335769 0.37536451 1.4913802
0.52604848 0.37536451 1.4913802
0.52873927 0.37536454 1.4913803
0.53143013 0.37536457 1.4913805
0.53412092 0.37536457 1.4913805
0.53681171 0.3753646 1.4913806
0.53950256 0.37536463 1.4913807
0.54219335 0.37536463 1.4913807
0.5448842 0.37536466 1.4913808
0.54764533 0.37541291 1.4915725
0.40209675 0.37789026 1.4907292
0.55263722 0.37783715 1.4905196
0.40229595 0.38076842 1.4914677
0.5580647 0.38324925 1.4906505
0.40474859 0.38861245 1.4905901
0.53364378 0.38847116 1.4900482
0.53639847 0.3885192 1.4902325
0.53915387 0.38856724 1.4904168
0.54190993 0.38861534 1.4906012
0.54466671 0.38866341 1.4907856
0.54739618 0.38869163 1.4908938
0.55008602 0.3886916 1.4908937
0.55277592 0.38869157 1.4908936
0.55546582 0.38869157 1.4908936
0.55815566 0.38869154 1.4908935
0.56084555 0.38869154 1.4908935
0.40500629 0.39155093 1.4915391
0.40730551 0.39386308 1.4901055
0.43159774 0.39395058 1.4904366
0.40758571 0.39682436 1.4911306
0.41006666 0.39931083 1.4903697
0.42898664 0.39940134 1.4907075
0.4126918 0.40193763 1.4901392
0.42618695 0.40198705 1.4903225
0.41036788 0.40229505 1.4914644
0.41300926 0.40493742 1.4912854
0.41547459 0.40471798 1.4904773
0.41805565 0.40461335 1.490092
0.42075169 0.40462065 1.4901189
0.42358923 0.40476304 1.4906433
0.42662007 0.40508717 1.491837
0.41579854 0.4077248 1.4916395
0.41840109 0.40763834 1.4913232
0.42112088 0.40766653 1.4914263
0.38618663 0.45884892 1.491608
0.38876805 0.4587194 1.491187
0.39145759 0.45871833 1.4911835
0.39414707 0.45871723 1.4911799
0.3968375 0.45871723 1.4911799
0.39952835 0.45871776 1.4911816
0.4022187 0.45871764 1.4911813
0.40490869 0.45871717 1.4911797
0.40759996 0.45871812 1.4911828
0.41029099 0.45871878 1.4911849
0.41298211 0.45871955 1.4911875
0.41567299 0.45872003 1.491189
0.41836223 0.45871872 1.4911847
0.42105302 0.4587191 1.491186
0.42374426 0.45872 1.4911889
0.42643407 0.45871928 1.4911866
0.42912319 0.45871788 1.4911821
0.43181303 0.45871729 1.4911801
0.43450347 0.45871729 1.4911801
0.43719435 0.45871776 1.4911816
0.43988454 0.45871753 1.4911809
0.44257453 0.45871705 1.4911793
0.44526514 0.45871729 1.4911801
0.44795671 0.45871845 1.4911839
0.45064798 0.45871928 1.4911866
0.38857922 0.46118572 1.4904627
0.45059639 0.46135691 1.4910159
0.38885289 0.46420157 1.4915124
0.39131293 0.46661714 1.4906325
0.44799 0.46682441 1.4912946
0.55078149 0.37571645 1.4927785
0.40249538 0.38364944 1.4922071
0.40269503 0.38653335 1.4929472
0.40291286 0.3894375 1.4937547
0.55055171 0.39171284 1.4921559
0.55324388 0.39171281 1.4921558
0.55593604 0.39171278 1.4921557
0.5586282 0.39171278 1.4921557
0.56132036 0.39171275 1.4921556
0.56401259 0.39171278 1.4921557
0.40526438 0.39449322 1.4924896
0.55371267 0.39473918 1.4934201
0.55640709 0.39473915 1.49342
0.55910152 0.39473912 1.4934199
0.56179595 0.39473912 1.4934199
0.56449044 0.39473912 1.4934199
0.56718487 0.39473912 1.4934199
0.40552282 0.3974393 1.4934413
0.43216339 0.39715949 1.4923899
0.40786624 0.39978969 1.492157
0.40814719 0.4027591 1.4931848
0.42947018 0.40254417 1.4923879
0.41066951 0.40528366 1.4925606
0.41333145 0.40794602 1.4924488
0.42398682 0.40783495 1.4920424
0.41097155 0.40827665 1.4936584
0.42705411 0.40819365 1.4933548
0.41365412 0.4109593 1.493614
0.41613203 0.4107452 1.4928358
0.4187471 0.41066837 1.4925566
0.42149067 0.41071776 1.492736
0.42438519 0.41091263 1.4934443
0.41909367 0.41370338 1.4937918
0.38409376 0.45956481 1.4939352
0.45403036 0.45941946 1.4934627
0.38644618 0.46185029 1.4926105
0.38670608 0.46485573 1.4936143
0.45114762 0.46461472 1.4928399
0.38912699 0.46722168 1.4925637
0.40066132 0.37368077 1.4954102
0.40335938 0.37368077 1.4954102
0.40605742 0.37368077 1.4954102
0.40875545 0.37368074 1.4954101
0.41145352 0.37368074 1.4954101
0.41415158 0.37368074 1.4954101
0.41684961 0.37368074 1.4954101
0.41954768 0.37368074 1.4954101
0.42224574 0.37368074 1.4954101
0.42494377 0.37368074 1.4954101
0.42764184 0.37368074 1.4954101
0.4303399 0.37368074 1.4954101
0.43303797 0.37368074 1.4954101
0.435736 0.37368074 1.4954101
0.43843403 0.37368071 1.49541
0.4411321 0.37368071 1.49541
0.44383013 0.37368071 1.49541
0.4465282 0.37368071 1.49541
0.44922626 0.37368071 1.49541
0.45192432 0.37368071 1.49541
0.45462236 0.37368071 1.49541
0.45732045 0.37368074 1.4954101
0.46001852 0.37368074 1.4954101
0.46271661 0.37368077 1.4954102
0.46541467 0.37368077 1.4954102
0.46811277 0.3736808 1.4954103
0.4708108 0.3736808 1.4954103
0.47350889 0.37368083 1.4954104
0.47620696 0.37368083 1.4954104
0.47890505 0.37368086 1.4954106
0.48160315 0.37368089 1.4954107
0.48430121 0.37368089 1.4954107
0.4869993 0.37368092 1.4954108
0.48969737 0.37368092 1.4954108
0.49239546 0.37368095 1.4954109
0.49509352 0.37368095 1.4954109
0.49779162 0.37368098 1.495411
0.50048965 0.37368098 1.495411
0.50318778 0.37368101 1.4954112
0.50588584 0.37368101 1.4954112
0.5085839 0.37368104 1.4954113
0.51128197 0.37368104 1.4954113
0.51398009 0.37368107 1.4954114
0.51667815 0.3736811 1.4954115
0.51937622 0.3736811 1.4954115
0.52207434 0.37368113 1.4954116
0.52477241 0.37368113 1.4954116
0.52747047 0.37368116 1.4954118
0.53016853 0.37368116 1.4954118
0.53286666 0.37368119 1.4954119
0.53556472 0.37368119 1.4954119
0.53826284 0.37368122 1.495412
0.54096085 0.37368122 1.495412
0.54365897 0.37368125 1.4954121
0.54635829 0.37368211 1.4954156
0.54922402 0.37379619 1.4958721
0.40055704 0.37628084 1.495021
0.40071046 0.37912339 1.4955937
0.56229877 0.38700178 1.4947565
0.40314487 0.39235839 1.494615
0.40337715 0.39528263 1.4954761
0.55418217 0.39777067 1.4946865
0.55687892 0.39777067 1.4946865
0.55957562 0.39777064 1.4946864
0.56227237 0.39777061 1.4946862
0.56496906 0.39777061 1.4946862
0.56766587 0.39777064 1.4946864
0.57036263 0.39777064 1.4946864
0.40578154 0.40038911 1.4943942
0.43273044 0.40037677 1.4943482
0.55735159 0.40080732 1.4959551
0.56005061 0.40080729 1.495955
0.56274956 0.40080726 1.4959549
0.56544858 0.40080726 1.4959549
0.56814766 0.40080726 1.4959549
0.57084674 0.40080729 1.495955
0.40604064 0.40334269 1.4953483
0.40842855 0.40573266 1.4942142
0.42995477 0.40569398 1.4940717
0.4087103 0.4087103 1.4952449
0.43044043 0.40885094 1.4957594
0.41127408 0.41127408 1.4947579
0.42748901 0.41130647 1.4948757
0.41397735 0.41397735 1.494781
0.41647649 0.41378084 1.4940715
0.42186114 0.41377434 1.494048
0.42478427 0.4139961 1.4948487
0.41157699 0.41427585 1.4958589
0.41430107 0.41700009 1.4959499
0.41682151 0.41682151 1.4953092
0.41945079 0.41675335 1.4950647
0.42223224 0.41683629 1.4953623
0.38182321 0.45737836 1.4955994
0.38434127 0.45716384 1.494898
0.38703898 0.4571645 1.4949001
0.38973674 0.45716524 1.4949025
0.39243427 0.45716569 1.494904
0.39513049 0.45716462 1.4949005
0.39782676 0.45716363 1.4948972
0.40052432 0.45716414 1.4948989
0.40322164 0.45716432 1.4948995
0.40591836 0.45716387 1.4948981
0.40861645 0.45716494 1.4949015
0.41131422 0.45716563 1.4949038
0.41401204 0.4571664 1.4949063
0.4167093 0.45716649 1.4949067
0.41940534 0.4571653 1.4949027
0.42210367 0.45716661 1.494907
0.42480057 0.45716631 1.4949061
0.42749658 0.45716512 1.4949021
0.43019265 0.45716399 1.4948984
0.4328897 0.45716387 1.4948981
0.43558723 0.45716432 1.4948995
0.43828413 0.45716405 1.4948987
0.44098076 0.45716354 1.494897
0.44367847 0.45716414 1.4948989
0.44637671 0.45716527 1.4949026
0.44907367 0.45716509 1.494902
0.4517701 0.45716435 1.4948996
0.45446661 0.45716372 1.4948976
0.3843523 0.46257135 1.4949408
0.45462364 0.46271783 1.4954141
0.38461122 0.46558198 1.4959478
0.55270618 0.37432671 1.4979951
0.55504799 0.37678441 1.4970217
0.40086401 0.38196805 1.4961667
0.4010177 0.38481498 1.4967403
0.40117139 0.38766393 1.497314
0.40132499 0.39051488 1.4978873
0.40360972 0.39821026 1.4963384
0.40384257 0.40114129 1.4972016
0.57399023 0.40111789 1.4971143
0.43329901 0.40360248 1.4963115
0.56052631 0.4038491 1.4972258
0.56322759 0.40384907 1.4972256
0.56592888 0.40384904 1.4972255
0.56863022 0.40384904 1.4972255
0.57133162 0.40384907 1.4972256
0.57403296 0.40384907 1.4972256
0.40630004 0.40630004 1.4963037
0.40655977 0.40926117 1.4972602
0.40899241 0.41169202 1.496277
0.43092719 0.41201502 1.4974508
0.40927491 0.41467789 1.4973105
0.42792484 0.41442561 1.4963996
0.4118804 0.4172821 1.4969616
0.4251841 0.41708535 1.4962558
0.42836154 0.41755113 1.4979267
0.4171671 0.41986722 1.496549
0.4198201 0.4198201 1.496381
0.42260507 0.41990471 1.4966826
0.41462529 0.42002758 1.4971206
0.4255847 0.42018047 1.4976655
0.41751325 0.42291796 1.4977908
0.42018998 0.42289218 1.4976995
0.45785579 0.45785579 1.4971606
0.38206679 0.46037021 1.4965534
0.38231069 0.46336594 1.4975088
0.40174606 0.3719871 1.4994589
0.40445143 0.3719871 1.4994589
0.4071568 0.3719871 1.4994589
0.40986216 0.3719871 1.4994589
0.41256753 0.3719871 1.4994589
0.41527289 0.3719871 1.4994589
0.4179782 0.37198707 1.4994588
0.42068356 0.37198707 1.4994588
0.42338893 0.37198707 1.4994588
0.42609429 0.37198707 1.4994588
0.42879966 0.37198707 1.4994588
0.43150502 0.37198707 1.4994588
0.43421036 0.37198707 1.4994588
0.43691573 0.37198707 1.4994588
0.43962109 0.37198707 1.4994588
0.44232646 0.37198707 1.4994588
0.44503182 0.37198707 1.4994588
0.44773719 0.37198707 1.4994588
0.45044252 0.37198707 1.4994588
0.45314792 0.3719871 1.4994589
0.45585328 0.3719871 1.4994589
0.45855865 0.3719871 1.4994589
0.46126404 0.37198713 1.499459
0.46396941 0.37198713 1.499459
0.4666748 0.37198716 1.4994591
0.46938017 0.37198716 1.4994591
0.47208554 0.37198716 1.4994591
0.47479093 0.37198719 1.4994593
0.4774963 0.37198719 1.4994593
0.48020169 0.37198722 1.4994594
0.48290706 0.37198722 1.4994594
0.48561242 0.37198722 1.4994594
0.48831782 0.37198725 1.4994595
0.49102318 0.37198725 1.4994595
0.49372858 0.37198728 1.4994596
0.49643394 0.37198728 1.4994596
0.49913934 0.37198731 1.4994597
0.5018447 0.37198731 1.4994597
0.50455004 0.37198731 1.4994597
0.50725549 0.37198734 1.4994599
0.50996083 0.37198734 1.4994599
0.51266623 0.37198737 1.49946
0.51537162 0.37198737 1.49946
0.51807696 0.37198737 1.49946
0.52078235 0.3719874 1.4994601
0.52348775 0.3719874 1.4994601
0.52619314 0.37198743 1.4994602
0.52889848 0.37198743 1.4994602
0.53160387 0.37198743 1.4994602
0.53430927 0.37198746 1.4994603
0.5370146 0.37198746 1.4994603
0.53972006 0.37198749 1.4994605
0.54242539 0.37198749 1.4994605
0.54513079 0.37198749 1.4994605
0.54789406 0.37202683 1.499619
0.56654304 0.39076596 1.4988503
0.40150863 0.39339736 1.4985727
0.40170887 0.39629865 1.49932
0.43695098 0.39636731 1.4995798
0.40407568 0.40407568 1.4980658
0.40430906 0.40701348 1.4989311
0.43386903 0.40683669 1.49828
0.56370646 0.40689602 1.4984986
0.56641006 0.406896 1.4984984
0.56911367 0.406896 1.4984984
0.57181728 0.406896 1.4984984
0.57452095 0.40689602 1.4984986
0.57722461 0.40689602 1.4984986
0.40454268 0.40995464 1.4997972
0.56689197 0.40994814 1.4997735
0.5695979 0.40994814 1.4997735
0.57230383 0.40994814 1.4997735
0.57500982 0.40994817 1.4997736
0.57771575 0.40994817 1.4997736
0.58042175 0.40994823 1.4997737
0.40681982 0.41222608 1.4982179
0.40708402 0.41519865 1.4991909
0.43141502 0.41518626 1.4991461
0.40955782 0.41766787 1.4983455
0.40984705 0.4206681 1.4994036
0.41218427 0.42029279 1.4980659
0.42879915 0.42068306 1.499457
0.41248855 0.4233079 1.4991719
0.41495004 0.42305979 1.4982932
0.42300344 0.42300344 1.4980935
0.42600188 0.42329711 1.4991336
0.41786 0.4259738 1.4990348
0.4205606 0.42596972 1.4990205
0.41527531 0.4260968 1.4994676
0.42340252 0.42610797 1.499507
0.37989393 0.45560232 1.4986334
0.38259774 0.45560226 1.4986331
0.38530174 0.45560241 1.4986336
0.38800576 0.45560259 1.4986342
0.39071003 0.45560306 1.4986358
0.39341453 0.45560378 1.4986382
0.39611876 0.45560417 1.4986395
0.39882174 0.45560315 1.4986361
0.40152529 0.45560277 1.4986348
0.40422946 0.45560312 1.498636
0.40693307 0.45560279 1.4986349
0.40963763 0.45560357 1.4986374
0.41234252 0.45560467 1.4986411
0.41504708 0.45560545 1.4986436
0.41775075 0.45560518 1.4986428
0.42045447 0.455605 1.4986422
0.42315876 0.45560545 1.4986436
0.42586195 0.45560467 1.4986411
0.42856416 0.45560291 1.4986353
0.43126786 0.45560274 1.4986347
0.43397209 0.45560309 1.4986359
0.43667567 0.45560279 1.4986349
0.4393791 0.45560232 1.4986334
0.44208381 0.45560318 1.4986362
0.44478828 0.45560381 1.4986383
0.44749147 0.45560309 1.4986359
0.45019481 0.45560253 1.4986341
0.4528985 0.45560235 1.4986335
0.45560217 0.45560217 1.4986329
0.45830604 0.45560217 1.4986329
0.37982932 0.45822826 1.4983785
0.38007182 0.46122596 1.4993352
0.45854554 0.46125081 1.499416
0.55110341 0.37236717 1.500991
0.5590924 0.38039944 1.5006275
0.40190926 0.39920279 1.5000679
0.40210986 0.40210986 1.5008167
0.40231064 0.40501979 1.5015661
0.57829368 0.40494102 1.501274
0.4346157 0.41024473 1.5008585
0.404787 0.41290981 1.500703
0.57008302 0.4130055 1.5010507
0.57279122 0.4130055 1.5010507
0.57549953 0.41300553 1.5010508
0.57820773 0.41300553 1.5010508
0.58091605 0.41300556 1.5010509
0.58362424 0.41300556 1.5010509
0.40504661 0.41588399 1.5016655
0.40736565 0.41819265 1.500228
0.43196711 0.41842583 1.5010645
0.40764761 0.42119074 1.5012665
0.4101499 0.42368621 1.5005116
0.42928538 0.42386851 1.5011573
0.41045329 0.42670885 1.5016215
0.41279519 0.42632946 1.5002863
0.42643735 0.42643735 1.500666
0.41311917 0.42937306 1.5014639
0.41560104 0.42913854 1.5006438
0.41820732 0.42903471 1.5002807
0.42093179 0.42905268 1.5003436
0.42380241 0.42921841 1.5009232
0.41592732 0.43218508 1.501822
0.41855526 0.43210071 1.5015289
0.42130372 0.4321411 1.5016692
0.37770784 0.45622775 1.5006906
0.37793428 0.45921046 1.5015903
0.38031465 0.4642275 1.5002931
0.40283653 0.37028408 1.5035288
0.40554926 0.37028411 1.503529
0.40826195 0.37028411 1.503529
0.41097465 0.37028411 1.503529
0.41368741 0.37028414 1.5035291
0.4164001 0.37028414 1.5035291
0.4191128 0.37028414 1.5035291
0.42182556 0.37028417 1.5035292
0.42453825 0.37028417 1.5035292
0.42725098 0.3702842 1.5035293
0.42996371 0.3702842 1.5035293
0.4326764 0.3702842 1.5035293
0.43538913 0.37028423 1.5035294
0.43810186 0.37028423 1.5035294
0.44081455 0.37028423 1.5035294
0.44352728 0.37028426 1.5035295
0.44624001 0.37028426 1.5035295
0.4489527 0.37028426 1.5035295
0.45166543 0.37028429 1.5035297
0.45437816 0.37028429 1.5035297
0.45709085 0.37028429 1.5035297
0.45980358 0.37028432 1.5035298
0.46251631 0.37028432 1.5035298
0.46522903 0.37028435 1.5035299
0.46794176 0.37028435 1.5035299
0.47065446 0.37028435 1.5035299
0.47336718 0.37028438 1.50353
0.47607991 0.37028438 1.50353
0.47879261 0.37028438 1.50353
0.48150536 0.37028441 1.5035301
0.48421806 0.37028441 1.5035301
0.48693076 0.37028441 1.5035301
0.48964351 0.37028444 1.5035303
0.49235621 0.37028444 1.5035303
0.49506894 0.37028444 1.5035303
0.49778166 0.37028447 1.5035304
0.50049436 0.37028447 1.5035304
0.50320709 0.37028447 1.5035304
0.50591981 0.3702845 1.5035305
0.50863254 0.3702845 1.5035305
0.51134527 0.37028453 1.5035306
0.51405799 0.37028453 1.5035306
0.51677072 0.37028453 1.5035306
0.51948339 0.37028453 1.5035306
0.52219605 0.3702845 1.5035305
0.52490872 0.37028447 1.5035304
0.52762139 0.37028444 1.5035303
0.53033406 0.37028441 1.5035301
0.53304672 0.37028438 1.50353
0.53575939 0.37028435 1.5035299
0.538472 0.37028429 1.5035297
0.54118466 0.37028426 1.5035295
0.54389733 0.37028423 1.5035294
0.54662681 0.37029558 1.5035756
0.57082212 0.39455879 1.5029969
0.40251163 0.40793267 1.5023162
0.40271285 0.41084847 1.5030673
0.40293509 0.41378856 1.5038967
0.43536451 0.4136641 1.5034444
0.57327944 0.41606805 1.5023301
0.57599002 0.41606808 1.5023302
0.57870054 0.41606808 1.5023302
0.58142966 0.41608134 1.5023781
0.58443022 0.4162879 1.5031239
0.40530655 0.41886196 1.5026292
0.5737685 0.41913584 1.5036117
0.57648134 0.41913584 1.5036117
0.57932746 0.41923228 1.5039576
0.40556681 0.42184374 1.503594
0.43253762 0.42169026 1.503047
0.40793002 0.42419299 1.5023065
0.40821275 0.42719939 1.5033478
0.42977276 0.42706126 1.5028616
0.41075704 0.4297359 1.5027328
0.42687368 0.429584 1.5022016
0.41106129 0.43276748 1.5038458
0.41344362 0.43242139 1.5026431
0.42420304 0.43233472 1.502342
0.42731091 0.43273708 1.5037402
0.41376865 0.43547454 1.5038244
0.41627097 0.43525404 1.5030628
0.41890377 0.43517187 1.5027791
0.42167625 0.43523496 1.502997
0.42460442 0.43545693 1.5037636
0.37564957 0.45430544 1.5032891
0.37813655 0.45403492 1.502394
0.38084668 0.45403433 1.5023919
0.38355684 0.4540337 1.5023899
0.38626701 0.45403317 1.5023881
0.38897783 0.45403334 1.5023887
0.39168862 0.45403352 1.5023893
0.39439949 0.45403376 1.5023901
0.39711076 0.45403451 1.5023925
0.3998217 0.45403481 1.5023936
0.4025315 0.45403385 1.5023904
0.40524235 0.45403406 1.5023911
0.40795287 0.45403391 1.5023906
0.41066387 0.45403433 1.5023919
0.41337597 0.45403591 1.5023972
0.41608715 0.45403647 1.5023991
0.41879746 0.45403609 1.5023978
0.42150849 0.45403647 1.5023991
0.42421886 0.45403615 1.502398
0.42692763 0.45403415 1.5023913
0.42963791 0.45403373 1.50239
0.43234882 0.45403403 1.502391
0.43505916 0.4540337 1.5023899
0.43776941 0.45403332 1.5023886
0.44048119 0.45403445 1.5023924
0.44319138 0.454034 1.5023909
0.44590154 0.45403349 1.5023892
0.44861203 0.45403334 1.5023887
0.45132253 0.45403317 1.5023881
0.45403355 0.45403355 1.5023894
0.45674476 0.45403409 1.5023912
0.459456 0.45403469 1.5023931
0.46216711 0.45403513 1.5023947
0.37816101 0.4621968 1.5024911
0.54969054 0.37053213 1.504536
0.40043691 0.38414794 1.5047053
0.56335789 0.38416934 1.5047891
0.40031514 0.38674515 1.5042478
0.40024996 0.38939571 1.5040028
0.40032127 0.39217913 1.5042708
0.40039262 0.39496356 1.5045389
0.400464 0.39774898 1.5048071
0.40055913 0.40055913 1.5051646
0.40071318 0.40342987 1.5057434
0.58260256 0.40877244 1.5054089
0.40316877 0.41674346 1.5047688
0.40340269 0.41970178 1.5056419
0.4058274 0.42482933 1.5045601
0.43310943 0.42496318 1.5050341
0.40608832 0.4278188 1.5055275
0.40849593 0.43020999 1.5043906
0.43026122 0.43026122 1.5045698
0.40877947 0.43322477 1.5054349
0.41136599 0.43580356 1.5049605
0.42774907 0.43589666 1.505282
0.41409412 0.43853247 1.5050073
0.4166179 0.43833089 1.5043155
0.41925284 0.43824813 1.5040314
0.42204943 0.43833429 1.5043272
0.42500657 0.43858504 1.5051877
0.41696543 0.4414129 1.5055703
0.41962239 0.4413504 1.5053571
0.42242324 0.44143909 1.5056596
0.37585789 0.45727116 1.5041227
0.46270716 0.45727953 1.5041503
0.37606642 0.46024013 1.5049572
0.40393582 0.36857444 1.5076318
0.40665686 0.36857527 1.5076352
0.40937701 0.3685753 1.5076354
0.4120971 0.3685753 1.5076354
0.41481724 0.36857533 1.5076355
0.41753736 0.36857533 1.5076355
0.42025751 0.36857536 1.5076356
0.42297763 0.36857536 1.5076356
0.42569777 0.36857539 1.5076357
0.42841789 0.36857539 1.5076357
0.43113804 0.36857542 1.5076358
0.43385816 0.36857542 1.5076358
0.4365783 0.36857545 1.507636
0.43929842 0.36857545 1.507636
0.44201857 0.36857548 1.5076361
0.44473869 0.36857548 1.5076361
0.44745883 0.36857551 1.5076362
0.45017895 0.36857551 1.5076362
0.4528991 0.36857554 1.5076363
0.45561922 0.36857554 1.5076363
0.45833936 0.36857557 1.5076364
0.46105948 0.36857557 1.5076364
0.46377963 0.3685756 1.5076365
0.46649975 0.3685756 1.5076365
0.46921989 0.36857563 1.5076367
0.47194001 0.36857563 1.5076367
0.47466016 0.36857566 1.5076368
0.47738028 0.36857566 1.5076368
0.48010042 0.36857569 1.5076369
0.48282054 0.36857569 1.5076369
0.48554069 0.36857572 1.507637
0.48826081 0.36857572 1.507637
0.49098095 0.36857575 1.5076371
0.49370107 0.36857575 1.5076371
0.49642119 0.36857575 1.5076371
0.49914128 0.36857572 1.507637
0.50186133 0.36857569 1.5076369
0.50458145 0.36857566 1.5076368
0.50730151 0.36857563 1.5076367
0.51002157 0.3685756 1.5076365
0.51274163 0.36857557 1.5076364
0.51546174 0.36857554 1.5076363
0.5181818 0.36857551 1.5076362
0.52090186 0.36857548 1.5076361
0.52362198 0.36857545 1.507636
0.52634203 0.36857542 1.5076358
0.52906209 0.36857539 1.5076357
0.53178215 0.36857536 1.5076356
0.53450221 0.36857533 1.5076355
0.53722233 0.3685753 1.5076354
0.53994238 0.36857527 1.5076352
0.54266244 0.36857525 1.5076351
0.5453825 0.36857522 1.507635
0.55593121 0.37379241 1.5067359
0.40115711 0.38211915 1.5074116
0.57512784 0.39837462 1.507174
0.40086737 0.40630287 1.5063229
0.40102178 0.40917814 1.5069031
0.4011763 0.41205567 1.5074837
0.43647346 0.41743723 1.5072739
0.4036369 0.42266354 1.5065161
0.57761133 0.42267558 1.506559
0.40387136 0.42562875 1.5073912
0.43368253 0.4282445 1.5070256
0.40634957 0.43081209 1.5064961
0.40661111 0.43380919 1.5074657
0.43075085 0.43346852 1.5062819
0.40906343 0.43624371 1.5064806
0.43124139 0.43668294 1.5079973
0.40934786 0.43926698 1.5075281
0.4116711 0.43884411 1.5060768
0.42818809 0.43906268 1.506827
0.41197667 0.44188917 1.5071948
0.41442016 0.44159523 1.5061922
0.42540944 0.44171908 1.5066146
0.41474667 0.44466281 1.5073789
0.41731349 0.44450003 1.5068271
0.41999435 0.44446006 1.5066916
0.42281216 0.44456458 1.5070459
0.37370023 0.45251703 1.5063645
0.3763693 0.45245841 1.5061693
0.37908673 0.45245835 1.5061692
0.38180417 0.45245832 1.5061691
0.38452125 0.45245788 1.5061675
0.38723817 0.45245722 1.5061654
0.3899551 0.45245662 1.5061634
0.39267236 0.45245638 1.5061626
0.39538994 0.45245653 1.5061631
0.3981075 0.45245665 1.5061635
0.40082556 0.45245734 1.5061657
0.4035432 0.45245755 1.5061665
0.40626016 0.45245698 1.5061646
0.40897769 0.45245704 1.5061648
0.41169527 0.45245719 1.5061653
0.41441464 0.45245928 1.5061722
0.41713244 0.45245963 1.5061734
0.4198499 0.45245963 1.5061734
0.4225674 0.45245963 1.5061734
0.42528331 0.45245796 1.5061679
0.42799976 0.45245689 1.5061643
0.43071741 0.45245707 1.5061649
0.43343455 0.45245674 1.5061638
0.43615189 0.45245665 1.5061635
0.43886971 0.45245701 1.5061647
0.4415867 0.45245653 1.5061631
0.44430405 0.45245644 1.5061628
0.44702134 0.45245627 1.5061622
0.44973958 0.45245704 1.5061648
0.45245761 0.45245761 1.5061667
0.45517561 0.45245814 1.5061685
0.45789319 0.45245826 1.5061688
0.46061069 0.45245829 1.506169
0.46332821 0.45245832 1.5061691
0.37390786 0.45548776 1.5072013
0.54839855 0.36877421 1.508449
0.55368072 0.37138781 1.5080105
0.56764656 0.38795987 1.5089725
0.58693367 0.41262391 1.5095626
0.40133095 0.41493541 1.5080649
0.40151808 0.417851 1.508768
0.40171978 0.42078444 1.5095259
0.40410611 0.42859739 1.5082674
0.4043411 0.43156946 1.5091444
0.4343766 0.43165323 1.5094374
0.40687299 0.43681014 1.5084366
0.40714315 0.43982354 1.5094382
0.43176821 0.43994045 1.5098394
0.40963274 0.44229451 1.5085772
0.42862809 0.44223532 1.5083754
0.40992931 0.44533849 1.5096694
0.41228274 0.44493881 1.5083145
0.4258146 0.44486064 1.5080495
0.41258922 0.44799292 1.5094358
0.41507372 0.44773525 1.5085676
0.41766217 0.44759235 1.5080861
0.420367 0.44757524 1.5080284
0.42321351 0.44770819 1.5084764
0.42625245 0.44804174 1.5096002
0.37459329 0.45087409 1.5099642
0.37731716 0.45087358 1.5099626
0.38004109 0.45087314 1.509961
0.38276577 0.45087355 1.5099624
0.38549006 0.45087352 1.5099623
0.38821432 0.45087349 1.5099622
0.39093819 0.45087296 1.5099604
0.3936618 0.45087218 1.5099578
0.39638558 0.45087156 1.5099558
0.39910996 0.45087168 1.5099561
0.40183434 0.45087174 1.5099564
0.40455902 0.45087218 1.5099578
0.40728348 0.45087233 1.5099584
0.41000766 0.45087221 1.5099579
0.41273189 0.45087212 1.5099577
0.41540125 0.45081252 1.509758
0.41801143 0.45068985 1.5093472
0.42074031 0.45069593 1.5093676
0.4236156 0.45085776 1.5099095
0.42635334 0.45087206 1.5099574
0.42907777 0.45087221 1.5099579
0.43180177 0.45087188 1.5099568
0.43452623 0.45087206 1.5099574
0.43725017 0.45087168 1.5099561
0.43997437 0.45087156 1.5099558
0.44269881 0.45087171 1.5099562
0.44542399 0.4508726 1.5099592
0.44814885 0.45087317 1.5099611
0.4508734 0.4508734 1.509962
0.45359775 0.45087346 1.5099621
0.4563221 0.45087349 1.5099622
0.4590461 0.45087317 1.5099611
0.46177086 0.45087361 1.5099627
0.46449569 0.45087412 1.5099643
0.37411565 0.4584617 1.5080389
0.46400139 0.46127996 1.5083574
0.41049305 0.36685258 1.5117455
0.4132221 0.36685395 1.5117511
0.4159497 0.36685401 1.5117513
0.41867727 0.36685401 1.5117514
0.42140481 0.36685401 1.5117514
0.42413238 0.36685404 1.5117515
0.42685995 0.36685407 1.5117517
0.42958748 0.36685407 1.5117517
0.43231508 0.3668541 1.5117518
0.43504262 0.3668541 1.5117518
0.43777019 0.36685413 1.5117519
0.44049773 0.36685413 1.5117519
0.44322529 0.36685416 1.511752
0.44595283 0.36685416 1.511752
0.4486804 0.36685419 1.5117521
0.45140797 0.36685419 1.5117521
0.45413554 0.36685422 1.5117522
0.45686308 0.36685422 1.5117522
0.45959064 0.36685425 1.5117524
0.46231818 0.36685425 1.5117524
0.46504578 0.36685428 1.5117525
0.46777332 0.36685428 1.5117525
0.47050089 0.36685431 1.5117526
0.47322842 0.36685431 1.5117526
0.47595602 0.36685434 1.5117527
0.47868356 0.36685434 1.5117527
0.48141113 0.36685437 1.5117528
0.56016076 0.37752926 1.5108113
0.57945824 0.40221217 1.5113761
0.40192166 0.42372081 1.5102845
0.40212375 0.42666012 1.5110439
0.40232605 0.42960241 1.5118041
0.40457636 0.43454498 1.5100225
0.40482596 0.43753916 1.5109541
0.40508735 0.44054955 1.5119298
0.40742671 0.44285515 1.5104895
0.43234175 0.44325259 1.5118451
0.40771067 0.44589096 1.5115422
0.42909828 0.44544488 1.51003
0.41023433 0.44839567 1.5107927
0.42958832 0.44868112 1.5117545
0.37193197 0.45095047 1.5102201
0.37211677 0.45390069 1.5109705
0.37230176 0.45685381 1.5117216
0.57197309 0.39178106 1.513216
0.40252846 0.43254754 1.5125647
0.40273103 0.43549559 1.5133258
0.43512982 0.43512982 1.5120548
0.40534911 0.44356382 1.5129067
0.40561116 0.44658199 1.5138848
0.43291688 0.44657356 1.5138562
0.37280747 0.4492808 1.513775
0.37553886 0.44928104 1.5137758
0.37827027 0.44928128 1.5137767
0.38100111 0.44928089 1.5137753
0.3837319 0.44928041 1.5137737
0.38646266 0.4492799 1.513772
0.38919401 0.44928011 1.5137727
0.39192566 0.44928065 1.5137745
0.39465684 0.44928062 1.5137744
0.39738747 0.44928002 1.5137724
0.4001179 0.44927916 1.5137695
0.40284872 0.44927874 1.5137681
0.40557998 0.44927883 1.5137684
0.40799502 0.44893098 1.5125964
0.43289173 0.4492788 1.5137683
0.43562281 0.44927871 1.513768
0.43835455 0.44927928 1.5137699
0.44108656 0.44928011 1.5137727
0.44381815 0.44928053 1.5137742
0.44654939 0.44928059 1.5137743
0.44928008 0.44928008 1.5137726
0.45201102 0.44927984 1.5137718
0.4547427 0.44928032 1.5137734
0.45747435 0.4492808 1.513775
0.46020606 0.44928128 1.5137767
0.46293727 0.44928128 1.5137767
0.46566799 0.44928086 1.5137752
0.58381277 0.40607119 1.5156018
0.4004418 0.40864196 1.5149949
0.40031937 0.41124958 1.5145316
0.40024894 0.41390932 1.5142652
0.40032062 0.41671601 1.5145364
0.40039232 0.41952372 1.5148077
0.40046421 0.42233256 1.5150796
0.40056041 0.42516822 1.5154436
0.40295759 0.43847251 1.5141772
0.43600303 0.43873659 1.5150892
0.40319291 0.44146204 1.5150614
0.40342841 0.44445503 1.5159464
0.37035364 0.44961751 1.5149095
0.37050903 0.45254055 1.5155451
0.57630938 0.39561382 1.5174451
0.40122804 0.40670556 1.5179695
0.4007155 0.42806807 1.5160303
0.40087068 0.43097019 1.5166174
0.40102598 0.43387452 1.517205
0.40118143 0.43678114 1.5177931
0.37101158 0.44767818 1.5176008
0.37374938 0.44767782 1.5175996
0.37648743 0.44767779 1.5175995
0.37922567 0.44767797 1.5176001
0.38196397 0.44767821 1.5176009
0.38470227 0.44767845 1.5176017
0.38744062 0.44767874 1.5176027
0.39017892 0.44767898 1.5176035
0.39291671 0.44767863 1.5176023
0.39565465 0.44767845 1.5176017
0.39839327 0.44767904 1.5176038
0.4011319 0.44767961 1.5176057
0.40366426 0.44745156 1.5168326
0.4367272 0.44767961 1.5176057
0.43946487 0.44767916 1.5176041
0.44220236 0.44767857 1.5176021
0.44494036 0.44767845 1.5176017
0.44767895 0.44767895 1.5176034
0.45041734 0.44767922 1.5176044
0.45315561 0.4476794 1.5176049
0.45589328 0.44767898 1.5176035
0.45863095 0.44767857 1.5176021
0.46136859 0.44767815 1.5176007
0.46410626 0.4476777 1.5175992
0.46684465 0.447678 1.5176002
0.37066454 0.455466 1.5161812
0.58820021 0.40995771 1.5198728
0.40133706 0.43969008 1.5183818
0.40152764 0.44263968 1.5191029
0.40173072 0.44560575 1.5198712
0.36920992 0.44607148 1.5214597
0.37195465 0.44607109 1.5214584
0.37469941 0.44607073 1.5214572
0.37744418 0.44607037 1.521456
0.38018891 0.44607002 1.5214548
0.38293365 0.44606966 1.5214535
0.38567838 0.4460693 1.5214523
0.38842312 0.44606894 1.5214511
0.39116794 0.4460687 1.5214503
0.393913 0.44606873 1.5214504
0.39665803 0.44606873 1.5214504
0.3994031 0.44606873 1.5214504
0.43783367 0.44606876 1.5214505
0.44057894 0.446069 1.5214514
0.44332427 0.4460693 1.5214523
0.446069 0.446069 1.5214514
0.44881374 0.4460687 1.5214503
0.45155913 0.44606906 1.5214515
0.45430452 0.44606939 1.5214527
0.45704994 0.44606975 1.5214539
0.45979536 0.44607013 1.5214552
0.46254078 0.44607049 1.5214564
0.4652862 0.44607082 1.5214576
0.46803162 0.44607118 1.5214587
0.36909109 0.44867206 1.52097
0.36920577 0.4515565 1.5214427
0.36932054 0.45444274 1.5219156
0.40044665 0.43347317 1.5254257
0.40032345 0.43609118 1.5249563
0.4002479 0.43875971 1.5246686
0.40032011 0.44159022 1.5249436
0.37014851 0.44445339 1.5253274
0.37290055 0.44445339 1.5253274
0.37565255 0.44445339 1.5253274
0.37840459 0.44445339 1.5253274
0.38115662 0.44445339 1.5253274
0.38390866 0.44445339 1.5253274
0.3866607 0.44445339 1.5253274
0.38941273 0.44445339 1.5253274
0.39216456 0.44445315 1.5253266
0.39491627 0.44445282 1.5253254
0.397668 0.44445246 1.5253242
0.40039229 0.44442168 1.5252186
0.43894812 0.4444522 1.5253233
0.44170052 0.44445252 1.5253245
0.44445288 0.44445288 1.5253257
0.44720525 0.44445324 1.5253268
0.4499574 0.44445333 1.5253272
0.45270944 0.44445333 1.5253272
0.45546147 0.44445333 1.5253272
0.45821351 0.44445333 1.5253272
0.46096551 0.44445333 1.5253272
0.46371755 0.44445333 1.5253272
0.46646959 0.44445333 1.5253272
0.46922159 0.4444533 1.5253271
0.40129974 0.43163854 1.5286753
0.37109265 0.44282803 1.5292182
0.37385169 0.442828 1.5292181
0.37661073 0.442828 1.5292181
0.3793698 0.442828 1.5292181
0.38212883 0.442828 1.5292181
0.3848879 0.442828 1.5292181
0.387647 0.44282809 1.5292183
0.39040628 0.44282833 1.5292192
0.39316553 0.44282854 1.5292199
0.39592478 0.44282877 1.5292207
0.39868405 0.44282901 1.5292215
0.44282869 0.44282869 1.5292205
0.44558752 0.44282845 1.5292196
0.44834635 0.44282824 1.5292189
0.45110518 0.442828 1.5292181
0.45386416 0.44282794 1.5292178
0.4566232 0.44282794 1.5292178
0.45938227 0.44282794 1.5292178
0.46214131 0.44282794 1.5292178
0.46490037 0.44282794 1.5292178
0.46765941 0.44282794 1.5292178
0.36848986 0.45129657 1.5298669
0.36867929 0.44324362 1.5306534
0.3686049 0.44591528 1.5303445
0.36853048 0.44858581 1.5300356
0.36927584 0.44119471 1.53313
0.37204197 0.44119474 1.5331302
0.3748081 0.4411948 1.5331303
0.37757424 0.4411948 1.5331303
0.38034037 0.44119483 1.5331304
0.3831065 0.44119486 1.5331305
0.38587266 0.44119489 1.5331306
0.38863882 0.44119495 1.5331309
0.39140511 0.44119516 1.5331316
0.39417124 0.44119516 1.5331316
0.3969371 0.44119489 1.5331306
0.39970297 0.44119462 1.5331297
0.44396073 0.44119462 1.5331297
0.44672695 0.44119471 1.53313
0.44949311 0.4411948 1.5331303
0.45225927 0.44119483 1.5331304
0.45502535 0.4411948 1.5331303
0.45779142 0.44119474 1.5331302
0.46055749 0.44119471 1.53313
0.46332356 0.44119468 1.5331299
0.46608964 0.44119465 1.5331298
0.46885571 0.44119462 1.5331297
0.37022153 0.43955141 1.5370563
0.37299481 0.4395515 1.5370567
0.37576815 0.43955168 1.5370573
0.37854153 0.43955189 1.537058
0.38131487 0.43955204 1.5370586
0.38408819 0.43955219 1.5370591
0.38686115 0.43955192 1.5370581
0.38963434 0.43955192 1.5370581
0.39240783 0.43955222 1.5370592
0.39518118 0.4395524 1.5370598
0.39795443 0.43955246 1.53706
0.40072769 0.43955252 1.5370603
0.4450987 0.43955228 1.5370594
0.44787157 0.43955198 1.5370584
0.45064446 0.43955168 1.5370573
0.4534176 0.43955162 1.537057
0.45619071 0.43955153 1.5370568
0.45896384 0.43955147 1.5370566
0.46173698 0.43955141 1.5370563
0.46451008 0.43955132 1.5370561
0.46728325 0.43955129 1.537056
0.37117279 0.43790048 1.5410057
0.37395325 0.43790066 1.5410063
0.3767336 0.43790069 1.5410064
0.37951419 0.43790099 1.5410075
0.38229483 0.43790135 1.5410087
0.38507542 0.43790165 1.5410098
0.38785586 0.43790179 1.5410103
0.39063627 0.43790185 1.5410105
0.39341664 0.43790191 1.5410107
0.39619657 0.43790147 1.5410092
0.39897698 0.43790159 1.5410095
0.4017579 0.43790221 1.5410118
0.44624284 0.43790185 1.5410105
0.4490231 0.43790179 1.5410103
0.45180336 0.43790171 1.54101
0.45458344 0.43790147 1.5410092
0.4573634 0.43790114 1.541008
0.46014339 0.43790081 1.5410068
0.46292338 0.43790048 1.5410057
0.46570364 0.43790042 1.5410055
0.37491748 0.43624225 1.5449797
0.37770522 0.43624258 1.5449808
0.38049281 0.43624267 1.5449811
0.3832804 0.43624276 1.5449815
0.38606796 0.43624285 1.5449817
0.38885519 0.43624258 1.5449808
0.39164212 0.43624192 1.5449785
0.39442968 0.43624204 1.5449789
0.39721805 0.43624297 1.5449822
0.40000474 0.4362421 1.5449791
0.40279078 0.43624055 1.5449736
0.44739282 0.43624285 1.5449817
0.45018032 0.43624285 1.5449817
0.4529677 0.43624273 1.5449814
0.45575511 0.43624267 1.5449811
0.45854256 0.43624261 1.5449809
0.46132991 0.43624246 1.5449804
0.46411702 0.43624213 1.5449792
0.3758865 0.43457508 1.5489728
0.37868124 0.43457514 1.5489731
0.3814759 0.43457511 1.548973
0.38427001 0.43457446 1.5489706
0.38706413 0.4345738 1.5489683
0.38985893 0.43457395 1.5489688
0.39265472 0.43457514 1.5489731
0.39544928 0.43457502 1.5489726
0.39824262 0.43457353 1.5489674
0.40103707 0.43457326 1.5489664
0.403833 0.4345746 1.5489712
0.40662795 0.43457487 1.5489721
0.44854733 0.43457392 1.5489687
0.45134237 0.43457425 1.5489699
0.45413762 0.43457478 1.5489718
0.45693272 0.43457514 1.5489731
0.45972729 0.43457505 1.5489727
0.46252191 0.43457499 1.5489725
0.37966108 0.43289772 1.5529811
0.38246244 0.43289703 1.5529788
0.38526475 0.43289748 1.5529803
0.38806775 0.43289867 1.5529846
0.39087021 0.43289927 1.5529867
0.39367089 0.43289787 1.5529817
0.3964718 0.43289679 1.5529778
0.39927456 0.43289769 1.552981
0.40207776 0.43289906 1.552986
0.40487918 0.43289849 1.552984
0.40767995 0.43289727 1.5529796
0.44971055 0.43289894 1.5529855
0.45251122 0.43289775 1.5529813
0.45531243 0.43289703 1.5529788
0.45811492 0.43289757 1.5529807
0.46091741 0.4328981 1.5529826
